0 0 0 0 0 0 0 0 0 0 0 0 0 0 0 0 0 0 0 0 0 0 6362 6363 6363 6364 6364 6365 6366 6364 6362 6359 6358 6359 6359 6360 6360 6361 6363 6365 6368 6369 6368 6370 6372 6372 6371 6371 6369 6366 6365 6365 6363 6362 6364 6365 6367 6368 6370 6368 6367 6368 6368 6368 6366 6363 6363 6363 6365 6367 6370 6370 6368 6368 6366 6363 6360 6358 6353 6349 6351 6352 6351 6353 6356 6355 6356 6356 6356 6354 6353 6350 6345 6343 6344 6342 6342 6342 6343 6346 6349 6351 6351 6350 6349 6346 6346 6346 6346 6345 6345 6345 6344 6341 6340 6342 6341 6340 6337 6337 6340 6340 6341 6341 6339 6337 6337 0 0 0 0 0 0 0 0 0 0 0 0 0 0 6321 6324 6328 6332 6335 6335 6333 6329 6330 6331 6330 6329 6329 6329 6332 6334 6337 0 0 0 0 0 0 0 0 0 0 0 0 0 0 0 0 0 0 0 0 0 0 0 0 0 0 0 0 0 0 0 0 0 0 0 0 0 0 0 0 0 0 0 0 0 0 0 0 0 0 0 0 0 0 0 0 0 0 0 0 0 0 0 0 0 0 6342 6343 6341 6342 6342 6342 6340 6341 0 0 0 0 0 0 0 0 0 0 0 0 0 0 6343 6343 6345 6343 6341 6340 6340 6342 6341 6340 6339 6339 6338 6336 6335 6335 6336 6338 6339 6340 6340 6339 6338 6337 6336 6335 6336 6338 6337 6337 0 0 6330 6323 6318 6315 6303 6281 6246 6214 6210 6209 6213 6219 6230 6275 6302 6317 6325 6328 6325 6323 6322 6321 6321 6319 6319 6325 6327 6329 6334 0 0 0 0 0 0 0 0 0 0 0 0 0 0 6320 6322 6321 6321 6321 6325 6328 6325 6326 6326 6322 6316 6314 6309 0 0 0 0 0 0 0 0 772 782 790 794 795 796 797 798 798 798 798 798 798 798 798 797 797 798 797 797 795 795 795 795 795 797 799 801 804 807 811 815 818 818 818 819 819 821 826 825 821 820 818 816 815 814 810 809 807 804 802 802 802 802 802 802 803 800 798 797 797 795 796 798 799 799 799 798 798 797 796 797 797 797 797 797 797 797 796 795 794 793 793 793 793 793 793 793 793 793 793 793 794 794 795 795 795 795 795 794 793 793 792 791 790 790 790 789 788 788 787 788 788 789 789 789 789 789 789 789 788 787 787 787 786 786 786 786 786 785 785 785 785 785 784 784 782 779 0 0 0 0 0 0 0 0 0 0 0 0 0 0 0 0 0 1380 1379 1378 1377 1376 1376 1375 1375 1375 1375 1376 1376 1376 1376 1376 1376 1375 1374 1374 1374 1373 1372 1372 1372 1372 1371 1371 1370 1370 1369 1369 1369 1369 1369 1368 1367 1366 1366 1366 1365 1365 1365 1365 1365 1364 1364 1365 1365 1365 1365 1364 1364 1364 1363 1362 1361 1361 1360 1360 1359 1359 1359 1359 1359 1358 1358 1358 1359 1358 1357 1357 1357 1356 1356 1355 1354 1353 1353 1353 1352 1352 1352 1352 1352 1352 1352 1351 1351 1351 1350 1348 1348 1348 1348 1348 1347 1347 1347 1347 1347 1347 1347 1348 1348 1349 1350 1349 1349 1351 1352 1356 1361 1373 1390 1415 1434 1449 1455 1459 1460 1460 1460 1458 1456 1455 1454 1453 1453 1453 1455 1457 1461 1469 0 0 0 0 0 0 0 0 0 0 0 0 0 2978 2974 2972 2973 0 0 0 2422 2425 2429 2431 2434 2436 2438 2441 0 0 0 0 0 0 0 0 0 0 0 0 0 1102 1097 1096 1094 1092 1091 1091 1090 1088 1088 1087 1086 1086 1086 1086 1086 1086 1086 1087 1087 1087 1089 1090 1091 1095 1098 1101 0 0 0 0 0 0 0 0 0 0 0 0 0 0 0 0 0 0 0 0 0 0 0 0 0 0 0 0 0 0 1878 1883 1891 1896 1903 1911 1918 1925 1933 1940 1948 1954 1960 1968 1976 1984 1990 1995 1992 0 0 0 0 0 0 0 0 0 0 0 0 0 1120 1112 1106 1101 1097 1094 1092 1089 1087 1085 1082 1080 1078 1076 1074 1073 1071 1069 1067 1067 1065 1062 1061 1060 1059 1059 1058 1057 1056 1055 1054 1053 1052 1051 1050 1049 1047 1046 1045 1045 1044 1044 1043 1044 1044 1043 1043 1043 1042 1042 1041 1041 1041 1041 1040 1040 1040 1039 1039 1039 1039 1037 1036 1036 1035 1034 1033 1033 1032 1032 1031 1031 1031 1031 1030 1030 1030 1030 1030 1030 1030 1030 1031 1032 1032 1032 1033 1033 1033 1034 1034 1034 1034 1035 1035 1036 1037 1038 1040 1042 1044 1046 1048 1050 1051 1052 1053 1054 1054 1054 1054 1053 1053 1052 1051 0 0 0 0 0 0 0 0 0 0 0 0 0 0 0 0 0 0 0 0 0 0 0 0 0 0 0 0 0 0 0 0 0 0 0 0 0 0 0 0 0 0 0 0 0 0 0 0 0 0 0 0 0 0 0 0 0 0 0 0 0 0 0 0 0 0 0 0 0 0 0 0 0 0 0 0 0 0 0 0 0 0 0 0 0 0 0 0 0 0 0 0 0 0 0 0 0 0 0 0 0 0 0 0 0 0 0 0 0 0 0 0 0 0 0 0 0 0 0 0 0 0 0 0 0 0 0 0 0 0 0 0 0 0 0 0 0 0 0 0 0 0 0 0 0 0 0 0 0 0 0 0 0 0 0 0 0 0 0 0 0 0 0 0 0 0 0 0
0 0 0 0 0 0 0 0 0 0 0 0 0 0 0 0 0 0 0 0 0 0 6363 6364 6365 6365 6366 6366 6366 6364 6364 6362 6360 6359 6360 6360 6360 6362 6363 6365 6367 6367 6367 6369 6371 6372 6372 6374 6372 6369 6369 6370 6368 6367 6367 6367 6368 6369 6370 6367 6365 6366 6366 6364 6361 6357 6359 6360 6363 6364 6364 6366 6367 6367 6365 6361 6360 6359 6356 6352 6353 6354 6354 6355 6357 6358 6358 6358 6358 6357 6357 6355 6351 6349 6348 6348 6348 0 6348 6349 0 6353 6353 6353 6352 6350 6349 6350 6351 6351 6351 6349 6348 6345 6344 6346 6345 6343 6341 6340 6340 6340 6341 6342 6341 6341 6341 6340 0 0 0 0 0 0 0 0 0 0 0 0 6309 6316 6321 6327 6331 6334 6336 6335 6332 6332 6332 6331 6330 6329 6328 6330 6333 0 0 0 0 0 0 0 0 0 0 0 0 0 0 0 0 0 0 0 0 0 0 0 0 0 0 0 0 0 0 0 0 0 0 0 0 0 0 0 0 0 0 0 0 0 0 0 0 0 0 0 0 0 0 0 0 0 0 0 0 0 0 0 0 0 0 0 0 6345 6344 6344 6344 6344 6341 6341 0 0 0 0 0 0 0 0 0 0 0 0 0 0 0 6342 6344 6344 6343 6341 6341 6343 6344 6340 6339 6340 6341 6339 6337 6336 6337 6338 6339 6339 6338 6338 6337 6337 6334 6333 6334 6339 6339 0 0 0 0 0 0 0 0 0 6251 6217 6213 6211 6215 6224 6236 6282 6307 6319 6324 6328 6324 6321 6322 6324 6321 6319 6321 6326 6328 6328 0 0 0 0 0 0 0 0 0 0 0 0 0 0 0 0 6320 6324 6325 6325 6328 6332 6331 6328 6327 6323 6319 6316 6314 6312 0 0 0 0 0 0 0 0 786 792 795 796 797 797 797 797 797 797 797 797 797 797 797 797 797 796 796 796 796 795 795 796 796 797 798 800 802 803 804 804 805 804 804 805 805 805 806 805 804 804 803 802 801 800 799 798 798 798 797 797 796 797 798 798 796 795 794 793 792 791 792 793 793 793 793 793 793 792 792 792 792 792 793 792 792 792 791 791 791 791 791 791 791 791 791 791 791 791 791 790 791 790 791 792 792 791 791 791 791 791 791 790 790 790 789 788 788 787 787 787 788 788 788 788 788 789 788 787 787 787 787 786 786 786 785 785 784 784 784 785 785 785 784 783 781 0 0 0 0 0 0 0 0 0 0 0 0 0 0 0 0 0 1384 1381 1379 1378 1376 1376 1376 1375 1375 1375 1375 1376 1376 1376 1376 1376 1375 1375 1374 1374 1373 1373 1373 1373 1372 1371 1370 1370 1369 1369 1369 1370 1369 1369 1368 1368 1366 1365 1365 1365 1364 1364 1365 1365 1365 1364 1364 1364 1364 1364 1364 1364 1363 1363 1362 1360 1360 1360 1359 1359 1358 1359 1359 1359 1358 1357 1357 1357 1357 1357 1357 1357 1356 1355 1355 1355 1354 1353 1353 1353 1353 1352 1352 1352 1353 1352 1351 1351 1351 1350 1348 1348 1348 1349 1348 1348 1348 1347 1347 1347 1347 1347 1347 1347 1348 1349 1349 1349 1350 1352 1355 1360 1372 1388 1412 1433 1449 1454 1459 1460 1460 1460 1459 1457 1455 1454 1453 1453 1454 1455 1457 1460 1470 0 0 0 0 0 0 0 0 0 0 0 0 0 2975 2972 2974 2972 0 0 2420 2424 2427 2430 2434 2438 2442 2447 0 0 0 0 0 0 0 0 0 0 0 0 0 1103 1099 1097 1096 1095 1093 1092 1092 1091 1091 1089 1088 1088 1088 1088 1087 1088 1088 1089 1091 1092 1091 1094 1096 0 0 0 0 0 0 0 0 0 0 0 0 0 0 0 0 0 0 0 0 0 0 0 0 0 0 0 0 0 0 1863 1868 1872 1875 1879 1882 1891 1897 1903 1911 1918 1924 1933 1941 1947 1955 1962 1970 1979 1987 1992 1996 0 0 0 0 0 0 0 0 0 0 0 0 0 0 1120 1113 1106 1101 1097 1094 1092 1089 1087 1084 1082 1080 1077 1075 1073 1072 1070 1068 1067 1066 1064 1062 1060 1060 1059 1058 1058 1057 1056 1055 1054 1053 1052 1051 1049 1048 1047 1046 1045 1044 1044 1043 1043 1043 1043 1043 1042 1042 1042 1041 1040 1040 1040 1040 1039 1039 1039 1039 1038 1038 1038 1037 1036 1036 1036 1035 1035 1034 1034 1033 1032 1032 1031 1031 1030 1030 1029 1029 1029 1029 1028 1029 1030 1030 1030 1031 1032 1032 1032 1033 1033 1033 1033 1033 1034 1035 1036 1037 1039 1041 1043 1045 1047 1049 1051 1052 1053 1054 1054 1054 1054 1054 1053 1052 1051 0 0 0 0 0 0 0 0 0 0 0 0 0 0 0 0 0 0 0 0 0 0 0 0 0 0 0 0 0 0 0 0 0 0 0 0 0 0 0 0 0 0 0 0 0 0 0 0 0 0 0 0 0 0 0 0 0 0 0 0 0 0 0 0 0 0 0 0 0 0 0 0 0 0 0 0 0 0 0 0 0 0 0 0 0 0 0 0 0 0 0 0 0 0 0 0 0 0 0 0 0 0 0 0 0 0 0 0 0 0 0 0 0 0 0 0 0 0 0 0 0 0 0 0 0 0 0 0 0 0 0 0 0 0 0 0 0 0 0 0 0 0 0 0 0 0 0 0 0 0 0 0 0 0 0 0 0 0 0 0 0 0 0 0 0 0 0 0
0 0 0 0 0 0 0 0 0 0 0 0 0 0 0 0 0 0 0 0 0 0 6363 6365 6366 6367 6366 6366 6365 6364 6364 6364 6362 6361 6362 6363 6364 6365 6366 6367 6369 6369 6369 6370 6372 6372 6372 6372 6370 6367 6367 6367 6367 6367 6368 6368 6368 6369 6370 6369 6368 6369 6368 6366 6362 6358 6359 6360 6361 6360 6359 6361 6363 6364 6364 6360 6359 6359 6358 6355 6356 6356 6356 6357 6359 6360 6359 6359 6359 6358 6358 6357 6355 6352 6351 6352 0 0 0 0 0 0 0 6356 6354 6352 6352 6353 6354 6354 6352 6350 6347 6344 6343 6344 6342 6341 6339 6339 6340 6340 6340 6340 6339 6338 6337 0 0 0 0 0 0 0 0 0 0 0 0 0 6300 6309 6315 6322 6328 6332 0 0 0 0 0 0 0 0 0 0 0 0 0 0 0 0 0 0 0 0 0 0 0 0 0 0 0 0 0 0 0 0 0 0 0 0 0 0 0 0 0 0 0 0 0 0 0 0 0 0 0 0 0 0 0 0 0 0 0 0 0 0 0 0 0 0 0 0 0 0 0 0 0 0 0 0 0 0 0 0 6346 6346 6347 6345 6343 6344 6345 0 0 0 0 0 0 0 0 0 0 0 0 0 0 6339 6339 6341 6341 6340 6341 6344 6345 6343 6339 6340 6340 6341 6339 6337 6339 6340 6340 6340 6338 6337 0 0 0 6332 6333 6340 0 0 0 0 0 0 0 0 0 0 0 0 0 6213 6216 6225 6240 6287 0 6322 6326 6328 6324 6321 6321 6325 6323 6322 6324 6327 6329 0 0 0 0 0 0 0 0 0 0 0 0 0 0 0 0 6325 6325 6326 6323 6324 6326 6329 6328 6328 6326 6326 6324 6321 6320 6318 0 0 0 0 0 0 0 0 788 793 795 795 796 796 796 796 796 796 796 796 796 796 796 796 796 796 795 795 795 794 794 795 795 796 796 797 798 798 798 798 799 799 799 799 799 799 800 799 798 797 797 797 796 796 796 796 795 795 794 794 793 793 794 796 794 792 791 790 789 789 789 790 790 790 790 790 790 789 789 790 790 790 790 790 790 790 790 790 790 790 790 791 791 791 791 791 791 790 790 789 789 787 788 788 789 789 788 790 790 789 789 791 791 791 790 790 789 788 788 787 787 787 787 788 788 789 788 787 786 786 786 786 786 785 785 784 784 784 784 784 785 785 784 783 781 0 0 0 0 0 0 0 0 0 0 0 0 0 0 0 0 0 1386 1382 1380 1379 1377 1377 1376 1376 1376 1375 1376 1376 1376 1376 1376 1376 1375 1375 1374 1374 1373 1373 1373 1373 1373 1371 1370 1370 1369 1369 1369 1370 1369 1369 1369 1368 1366 1366 1365 1365 1364 1364 1365 1365 1365 1364 1364 1364 1365 1364 1364 1363 1363 1362 1362 1360 1360 1360 1360 1360 1359 1359 1359 1359 1359 1358 1358 1358 1358 1358 1358 1357 1357 1356 1355 1354 1354 1353 1353 1353 1353 1353 1352 1352 1353 1353 1352 1351 1351 1350 1349 1348 1349 1349 1349 1347 1348 1348 1347 1347 1346 1346 1346 1347 1347 1348 1349 1349 1349 1351 1355 1359 1372 1388 1411 1431 1448 1455 1458 1460 1460 1459 1459 1457 1455 1455 1454 1453 1453 1455 1457 1459 0 0 0 0 0 0 0 0 0 0 0 0 0 0 2973 2967 2970 2965 0 2413 2422 2426 2429 2432 2437 2449 2462 0 0 0 0 0 0 0 0 0 0 0 1119 1109 1103 1099 1096 1094 1094 1093 1092 1092 1091 1091 1090 1090 1090 1089 1089 1089 1089 1091 1092 1093 1096 1099 0 0 0 0 0 0 0 0 0 0 0 0 0 0 0 0 0 0 0 0 0 0 0 0 0 0 0 0 1838 1843 1849 1854 1858 1862 1868 1872 1875 1879 1884 1890 1897 1903 1910 1917 1923 1932 1940 1947 1953 1962 1971 1980 1988 1995 1998 0 0 0 0 0 0 0 0 0 0 0 0 0 0 1120 1112 1106 1100 1096 1094 1092 1089 1087 1084 1082 1079 1078 1075 1074 1072 1070 1068 1066 1065 1063 1061 1060 1059 1059 1058 1058 1057 1055 1055 1054 1053 1052 1051 1049 1047 1047 1046 1045 1044 1044 1043 1043 1043 1042 1042 1042 1042 1041 1041 1040 1040 1040 1039 1039 1039 1039 1038 1038 1038 1038 1037 1036 1036 1035 1035 1035 1035 1034 1034 1033 1032 1031 1031 1030 1030 1029 1029 1028 1028 1028 1028 1028 1028 1028 1029 1030 1030 1030 1031 1032 1032 1031 1031 1032 1034 1035 1036 1037 1039 1041 1043 1046 1048 1050 1052 1053 1054 1054 1054 1054 1054 1053 1052 1051 0 0 0 0 0 0 0 0 0 0 0 0 0 0 0 0 0 0 0 0 0 0 0 0 0 0 0 0 0 0 0 0 0 0 0 0 0 0 0 0 0 0 0 0 0 0 0 0 0 0 0 0 0 0 0 0 0 0 0 0 0 0 0 0 0 0 0 0 0 0 0 0 0 0 0 0 0 0 0 0 0 0 0 0 0 0 0 0 0 0 0 0 0 0 0 0 0 0 0 0 0 0 0 0 0 0 0 0 0 0 0 0 0 0 0 0 0 0 0 0 0 0 0 0 0 0 0 0 0 0 0 0 0 0 0 0 0 0 0 0 0 0 0 0 0 0 0 0 0 0 0 0 0 0 0 0 0 0 0 0 0 0 0 0 0 0 0 0
6354 6355 6359 6364 6371 0 0 0 0 0 0 0 0 0 0 0 0 0 0 0 6359 6361 6363 6365 6366 6368 6367 6364 6363 6362 6363 6363 6361 6360 6362 6364 6365 6365 6367 6367 6367 6367 6367 6367 6369 6369 6370 6371 6371 6369 6367 6367 6366 6365 6366 6367 6367 6366 6368 6368 6367 6369 6368 6366 6363 6359 6360 6360 6360 6359 6356 6357 6359 6361 6361 6359 6359 6360 6359 6359 6358 6359 6359 6360 6361 6362 6363 6361 6361 6361 6360 6359 6357 6354 6351 6353 0 0 0 0 0 0 0 6358 6356 6353 6353 6354 6355 6353 6349 6345 6342 6340 6339 6341 6340 6339 6337 6339 6340 6339 6339 6339 6337 6335 6334 0 0 0 0 0 0 0 0 0 0 0 0 0 0 0 0 6317 6323 0 0 0 0 0 0 0 0 0 0 0 0 0 0 0 0 0 0 0 0 0 0 0 0 0 0 0 0 0 0 0 0 0 0 0 0 0 0 0 0 0 0 0 0 0 0 0 0 0 0 0 0 0 0 0 0 0 0 0 0 0 0 0 0 0 0 0 0 0 0 0 0 0 0 0 0 0 0 0 0 0 0 6348 6349 6347 6345 6346 6349 6351 0 0 0 0 0 0 0 0 0 0 0 0 0 6336 6336 6338 6339 6339 6339 6344 6348 6348 6343 6343 6343 6343 6343 6338 6338 6340 6340 6341 6338 0 0 0 0 0 6337 6344 0 0 0 0 0 0 0 0 0 0 0 0 0 0 6219 6230 6248 0 0 0 6325 0 0 0 0 0 0 0 0 6328 6332 0 0 0 0 0 0 0 0 0 0 0 0 0 0 0 0 0 6328 6327 6324 6324 6326 6328 6327 6329 6326 6326 6325 6322 6322 6319 6314 0 0 0 0 0 0 0 788 793 795 796 796 796 796 796 796 796 796 796 796 796 796 796 796 795 795 794 794 794 793 794 794 795 795 796 796 795 795 796 796 796 796 796 796 796 796 795 795 794 794 794 794 794 794 794 794 793 793 793 792 792 792 795 793 791 791 790 789 788 788 789 789 789 789 789 789 788 788 789 789 789 789 789 790 790 790 790 790 789 789 790 790 790 790 791 791 790 789 789 788 788 789 790 790 790 789 790 790 789 790 790 790 790 790 789 789 788 787 787 787 787 788 788 788 788 788 787 786 786 786 786 786 785 785 784 784 784 784 784 785 785 784 783 779 0 0 0 0 0 0 0 0 0 0 0 0 0 0 0 0 0 1388 1384 1381 1379 1378 1377 1377 1376 1376 1376 1376 1376 1376 1376 1376 1376 1376 1375 1375 1375 1374 1373 1373 1373 1373 1372 1371 1370 1370 1370 1370 1370 1369 1369 1370 1368 1366 1366 1366 1366 1365 1365 1365 1365 1365 1364 1364 1364 1364 1365 1364 1363 1363 1362 1362 1360 1361 1360 1360 1360 1360 1360 1359 1359 1359 1358 1358 1358 1358 1358 1358 1357 1357 1356 1355 1355 1354 1354 1354 1354 1354 1354 1353 1353 1353 1353 1352 1350 1351 1350 1349 1348 1348 1348 1348 1347 1347 1347 1347 1347 1346 1347 1347 1347 1348 1348 1349 1349 1349 1351 1354 1359 1372 1388 1412 1431 1447 1454 1458 1460 1460 1459 1458 1456 1455 1455 1454 1454 1454 1455 1457 1459 0 0 0 0 0 0 0 0 0 0 0 0 0 0 2968 2963 2963 2957 0 2421 2425 2432 2436 2441 0 0 0 0 0 0 0 0 0 0 1921 1921 0 1125 1115 1105 1101 1097 1095 1093 1092 1092 1091 1092 1092 1092 1092 1092 1092 1092 1092 1093 1094 1099 1101 1103 0 0 0 0 0 0 0 0 0 0 0 0 0 0 0 0 0 0 0 0 0 0 0 0 0 0 0 0 0 1835 1839 1842 1847 1853 1858 1861 1864 1869 1875 1878 1882 1889 1897 1906 1911 1917 1923 1931 1939 1947 1954 1962 1971 1981 1989 1996 1999 0 0 0 0 0 0 0 0 0 0 0 0 0 0 1126 1112 1105 1100 1095 1093 1091 1089 1086 1084 1082 1079 1078 1076 1074 1072 1070 1068 1066 1065 1064 1062 1060 1059 1058 1058 1057 1057 1056 1055 1054 1054 1052 1050 1049 1048 1047 1046 1045 1044 1043 1043 1042 1042 1042 1042 1041 1041 1041 1040 1040 1039 1039 1039 1039 1038 1038 1038 1037 1037 1037 1037 1037 1037 1036 1036 1035 1036 1035 1035 1034 1033 1032 1032 1031 1031 1030 1029 1029 1028 1027 1027 1027 1027 1027 1027 1028 1028 1028 1028 1029 1029 1029 1030 1030 1031 1033 1034 1036 1037 1039 1042 1044 1047 1049 1051 1052 1054 1054 1054 1054 1053 1053 1052 1050 0 0 0 0 0 0 0 0 0 0 0 0 0 0 0 0 0 0 0 0 0 0 0 0 0 0 0 0 0 0 0 0 0 0 0 0 0 0 0 0 0 0 0 0 0 0 0 0 0 0 0 0 0 0 0 0 0 0 0 0 0 0 0 0 0 0 0 0 0 0 0 0 0 0 0 0 0 0 0 0 0 0 0 0 0 0 0 0 0 0 0 0 0 0 0 0 0 0 0 0 0 0 0 0 0 0 0 0 0 0 0 0 0 0 0 0 0 0 0 0 0 0 0 0 0 0 0 0 0 0 0 0 0 0 0 0 0 0 0 0 0 0 0 0 0 0 0 0 0 0 0 0 0 0 0 0 0 0 0 0 0 0 0 0 0 0 0 0
6359 6360 6364 6368 6374 0 0 0 0 0 0 0 0 0 0 0 0 0 0 0 6358 6362 6364 6367 6368 6369 6368 6365 6363 6362 6363 6363 6362 6361 6363 6365 6366 6368 6369 6367 6367 6366 6366 6366 6366 6366 6367 6369 6371 6371 6369 6368 6366 6365 6365 6364 6363 6363 6362 6363 6364 6366 6365 6363 6360 6357 6358 6359 6357 6356 6355 6358 6360 6361 6361 6359 6360 6361 6359 6359 6360 6361 6362 6362 6362 6362 6363 6363 6361 6361 6361 6360 6358 6357 6355 6355 0 0 0 6355 0 0 6359 6359 6357 6354 6353 6354 6355 6353 6347 6342 6338 6337 6338 6340 6339 6338 6337 6337 6339 6339 6337 6337 6334 6331 6330 0 0 0 0 0 0 0 0 0 0 0 0 0 0 0 0 0 0 0 0 0 0 0 0 0 0 0 0 0 0 0 0 0 0 0 0 0 0 0 0 0 0 0 0 0 0 0 0 0 0 0 0 0 0 0 0 0 0 0 0 0 0 0 0 0 0 0 0 0 0 0 0 0 0 0 0 0 0 0 0 0 0 0 0 0 0 0 0 0 0 0 0 0 0 0 0 0 0 0 0 0 6349 0 0 0 0 0 0 0 0 0 0 0 0 0 0 0 0 0 6338 6338 6340 6342 6344 6344 6344 6347 6348 6347 6346 6343 6342 6341 6341 6341 6339 6338 6338 6339 6335 0 0 0 0 0 0 0 0 0 0 0 0 0 0 0 0 0 0 0 0 0 0 0 0 0 0 0 0 0 0 0 0 0 0 0 0 0 0 0 0 0 0 0 0 0 0 0 0 0 0 0 0 0 0 0 6330 6329 6327 6326 6328 6329 6329 6330 6329 6329 6328 6324 6323 6318 6313 0 0 0 0 0 0 0 785 792 795 795 796 796 796 795 795 795 795 795 795 795 795 795 795 795 794 793 793 793 793 793 793 794 794 794 795 794 794 795 795 795 795 795 795 794 794 794 793 793 793 793 793 793 793 793 793 792 792 792 791 791 792 794 793 791 0 0 789 788 788 788 788 788 788 787 787 786 786 786 787 788 788 788 788 788 788 788 788 788 789 789 789 789 790 791 791 790 790 789 789 788 789 790 790 0 0 791 791 790 0 0 0 790 790 789 788 787 788 786 787 786 786 787 786 786 786 787 787 786 786 785 786 786 785 784 784 784 784 784 784 784 784 782 777 0 0 0 0 0 0 0 0 0 0 0 0 0 0 0 0 0 1390 1386 1382 1380 1378 1377 1377 1377 1377 1377 1376 1376 1376 1376 1376 1376 1376 1375 1375 1374 1374 1374 1373 1373 1372 1372 1371 1370 1370 1369 1369 1369 1370 1370 1370 1369 1368 1366 1366 1366 1365 1365 1366 1366 1365 1365 1365 1365 1364 1364 1364 1363 1362 1362 1362 1361 1361 1360 1360 1361 1360 1360 1359 1358 1358 1358 1358 1358 1358 1358 1358 1358 1357 1357 1355 1355 1354 1354 1354 1354 1354 1354 1353 1353 1353 1352 1352 1351 1350 1350 1349 1348 1348 1348 1347 1346 1346 1346 1347 1347 1346 1346 1346 1347 1348 1348 1348 1349 1350 1351 1354 1358 1370 1386 1409 1429 1446 1453 1457 1459 1459 1459 1458 1456 1456 1455 1454 1453 1453 1454 1456 1459 1471 0 0 0 0 0 0 0 0 0 0 0 0 0 2964 2957 2958 0 0 2424 2429 2437 0 0 0 0 0 0 0 1922 1919 1918 1914 1906 1903 0 1123 1115 1108 1103 1098 1095 1093 1093 1091 1091 1092 1092 1093 1094 1095 1096 1097 1097 1099 1100 0 0 0 0 0 0 0 0 0 0 0 0 0 0 0 0 0 0 0 0 0 0 0 0 0 0 0 0 0 0 1823 1825 1830 1836 1840 1842 1846 1852 1856 1861 1865 1868 1873 1879 1883 1888 1896 1905 1912 1918 1925 1932 1940 1950 1958 1966 1976 1987 1994 2000 2002 0 0 0 0 0 0 0 0 0 0 0 0 0 0 1128 1114 1105 1100 1095 1092 1090 1088 1086 1083 1081 1079 1077 1076 1074 1072 1070 1068 1067 1065 1063 1062 1060 1059 1059 1058 1058 1057 1056 1055 1054 1053 1052 1050 1049 1048 1047 1046 1045 1044 1043 1043 1042 1042 1042 1041 1041 1041 1041 1040 1040 1039 1039 1039 1039 1038 1037 1037 1036 1037 1037 1037 1036 1037 1037 1037 1037 1037 1036 1036 1036 1035 1034 1033 1032 1032 1031 1030 1029 1028 1027 1027 1027 1026 1025 1025 1025 1025 1025 1025 1026 1026 1026 1026 1027 1028 1030 1032 1033 1035 1037 1040 1042 1045 1048 1050 1052 1054 1054 1054 1054 1053 1052 1051 1050 0 0 0 0 0 0 0 0 0 0 0 0 0 0 0 0 0 0 0 0 0 0 0 0 0 0 0 0 0 0 0 0 0 0 0 0 0 0 0 0 0 0 0 0 0 0 0 0 0 0 0 0 0 0 0 0 0 0 0 0 0 0 0 0 0 0 0 0 0 0 0 0 0 0 0 0 0 0 0 0 0 0 0 0 0 0 0 0 0 0 0 0 0 0 0 0 0 0 0 0 0 0 0 0 0 0 0 0 0 0 0 0 0 0 0 0 0 0 0 0 0 0 0 0 0 0 0 0 0 0 0 0 0 0 0 0 0 0 0 0 0 0 0 0 0 0 0 0 0 0 0 0 0 0 0 0 0 0 0 0 0 0 0 0 0 0 0 0
6358 6360 6365 6370 6375 0 0 0 0 0 0 0 0 0 0 0 0 0 0 6356 6358 6360 6363 6366 6368 6370 6367 6364 6362 6361 6362 6363 6361 6361 6363 6366 6367 6370 6372 6370 6367 6366 6366 6366 6365 6365 6366 6367 6369 6372 6370 6369 6366 6365 6365 6362 6359 6359 6358 6360 6362 6363 6363 6361 6360 6359 6361 6361 6359 6358 6357 6359 6362 6362 6361 6358 6359 6360 6360 6360 6361 6362 6364 6364 6363 6362 6362 6363 6362 6360 6360 6361 6360 6359 6358 6358 0 0 0 6356 6356 6357 6358 6358 6356 6354 6352 6352 6354 6352 6346 6341 6337 6336 6338 0 0 0 0 0 0 0 6336 6332 6329 6326 6323 6323 0 0 0 0 0 0 0 0 0 0 0 0 0 0 0 0 0 0 0 0 0 0 0 0 0 0 0 0 0 0 0 0 0 0 0 0 0 0 0 0 0 0 0 0 0 0 0 0 0 0 0 0 0 0 0 0 0 0 0 0 0 0 0 0 0 0 0 0 0 0 0 0 0 0 0 0 0 0 0 0 0 0 0 0 0 0 0 0 0 0 0 0 0 0 0 0 0 0 0 0 0 0 0 0 0 0 0 0 0 0 0 0 0 0 0 0 0 0 0 6337 6339 6342 6344 6346 6346 6349 6349 6348 6348 6346 6347 6344 6342 6343 6342 6341 6341 6345 0 0 0 0 0 0 0 0 0 0 0 0 0 0 0 0 0 0 0 0 0 0 0 0 0 0 0 0 0 0 0 0 0 0 0 0 0 0 0 0 0 0 0 0 0 0 0 0 0 0 0 0 0 0 0 0 6328 6329 6327 6327 6327 6329 6329 6330 6330 6332 6332 6326 6324 6319 0 0 0 0 0 0 0 0 786 791 794 795 795 795 795 795 795 795 795 795 795 795 795 795 795 794 794 793 793 793 793 793 793 794 794 794 794 794 793 794 794 794 794 794 794 794 793 793 793 793 793 792 792 792 792 792 792 792 792 792 791 791 792 793 793 791 0 0 789 788 788 788 788 788 787 786 786 785 786 786 786 788 787 787 787 787 787 788 788 788 789 789 790 790 791 0 790 790 789 789 789 788 790 790 791 791 0 791 791 0 0 0 0 0 789 790 0 0 788 787 787 787 786 787 787 786 785 786 786 785 785 785 786 786 785 784 783 784 783 784 784 784 784 780 0 0 0 0 0 0 0 0 0 0 0 0 0 0 0 0 0 0 1392 1387 1383 1381 1379 1378 1378 1377 1377 1378 1377 1377 1376 1376 1376 1375 1376 1375 1375 1374 1373 1373 1373 1372 1372 1372 1371 1370 1370 1369 1369 1369 1369 1369 1369 1368 1368 1367 1367 1367 1366 1366 1366 1366 1366 1365 1364 1364 1364 1363 1363 1363 1363 1362 1362 1361 1361 1361 1361 1361 1360 1360 1359 1358 1357 1357 1357 1357 1358 1358 1358 1358 1357 1356 1356 1355 1354 1354 1354 1354 1354 1354 1353 1353 1353 1353 1352 1351 1350 1350 1349 1349 1348 1348 1347 1347 1347 1347 1347 1347 1346 1346 1346 1347 1347 1348 1348 1349 1349 1351 1354 1359 1370 1385 1409 1429 1445 1452 1456 1458 1459 1458 1458 1456 1455 1455 1454 1453 1453 1454 1456 1458 1472 0 0 0 0 0 0 0 0 0 0 0 0 2965 2951 2942 2941 0 0 2430 2441 0 0 0 0 0 0 1916 1916 1915 1912 1908 1904 1898 1892 0 1114 1108 1103 1099 1096 1094 1093 1092 1091 1092 1092 1093 1094 1096 1098 1100 0 0 0 0 0 0 0 0 0 0 0 0 0 0 0 0 0 0 0 0 0 0 0 0 0 0 0 1821 0 0 0 0 0 1819 1822 1823 1829 1835 1841 1843 1846 1851 1854 1858 1863 1867 1871 1876 1881 1887 1893 1900 1908 1915 1922 1930 1938 1948 1958 1968 1980 1992 2001 2009 2019 0 0 0 0 0 0 0 0 0 0 0 0 0 0 1124 1113 1105 1100 1094 1091 1090 1087 1085 1083 1081 1078 1077 1075 1074 1072 1071 1069 1066 1065 1063 1062 1060 1059 1059 1059 1058 1057 1056 1055 1054 1053 1052 1050 1048 1047 1046 1045 1045 1044 1043 1043 1042 1042 1042 1041 1041 1041 1041 1040 1040 1039 1038 1038 1038 1037 1037 1036 1035 1035 1035 1035 1035 1036 1036 1036 1036 1037 1037 1036 1036 1036 1035 1033 1033 1032 1031 1030 1030 1029 1028 1027 1026 1025 1024 1023 1023 1022 1022 1022 1023 1022 1022 1023 1024 1025 1027 1028 1030 1032 1034 1037 1040 1043 1046 1048 1050 1051 1052 1052 1053 1052 1051 1050 1049 0 0 0 0 0 0 0 0 0 0 0 0 0 0 0 0 0 0 0 0 0 0 0 0 0 0 0 0 0 0 0 0 0 0 0 0 0 0 0 0 0 0 0 0 0 0 0 0 0 0 0 0 0 0 0 0 0 0 0 0 0 0 0 0 0 0 0 0 0 0 0 0 0 0 0 0 0 0 0 0 0 0 0 0 0 0 0 0 0 0 0 0 0 0 0 0 0 0 0 0 0 0 0 0 0 0 0 0 0 0 0 0 0 0 0 0 0 0 0 0 0 0 0 0 0 0 0 0 0 0 0 0 0 0 0 0 0 0 0 0 0 0 0 0 0 0 0 0 0 0 0 0 0 0 0 0 0 0 0 0 0 0 0 0 0 0 0 0
6359 6361 6366 6370 6376 0 0 0 0 0 0 0 0 0 0 0 0 0 6355 6357 6358 6359 6360 6362 6365 6367 6365 6361 6358 6356 6358 6359 6359 6359 6361 6363 6367 6369 6373 6370 6366 6366 6365 6366 6365 6363 6364 6366 6368 6370 6369 6368 6365 6364 6365 6362 6358 6359 6359 6360 6361 6363 6362 6361 6361 6361 6362 6363 6361 6360 6359 6361 6363 6363 6360 6356 6357 6358 6359 6360 6361 6362 6363 6363 6362 6359 6359 6360 6359 6359 6359 6360 6361 6361 6361 6360 6360 6360 6359 6357 6355 6355 0 6357 6356 6353 6350 6348 6350 6348 6341 6338 6335 6334 0 0 0 0 0 0 0 0 0 0 0 6320 6315 0 0 0 0 0 0 0 0 0 0 0 0 0 0 0 0 0 0 0 0 0 0 0 0 0 0 0 0 0 0 0 0 0 0 0 0 0 0 0 0 0 0 0 0 0 0 0 0 0 0 0 0 0 0 0 0 0 0 0 0 0 0 0 0 0 0 0 0 0 0 0 0 0 0 0 0 0 0 0 0 0 0 0 0 0 0 0 0 0 0 0 0 0 0 0 0 0 0 0 0 0 0 0 0 0 0 0 0 0 0 0 0 0 0 0 0 0 0 0 0 6335 6336 6339 6343 6345 6346 6349 6351 6349 6349 6348 6347 6349 6345 6344 6344 0 0 0 0 0 0 0 0 0 0 0 0 0 0 0 0 0 0 0 0 0 0 0 0 0 0 0 0 0 0 0 0 0 0 0 0 0 0 0 0 0 0 0 0 0 0 0 0 0 0 0 0 0 0 0 0 0 0 0 6325 6326 6323 6323 6323 6324 6326 6327 6329 6331 6332 0 6326 6320 0 0 700 0 0 0 0 772 782 791 794 795 795 796 796 796 796 796 796 796 796 796 796 795 795 795 794 794 793 794 794 794 793 794 794 794 794 794 794 794 794 794 794 794 794 794 793 793 793 793 793 792 792 792 792 792 792 792 792 792 791 791 792 794 793 791 791 791 789 788 787 788 788 788 787 786 786 785 785 786 786 787 786 787 0 787 787 787 789 788 789 789 789 790 791 0 0 790 789 788 788 788 790 791 0 0 790 791 791 0 0 0 0 0 789 790 0 0 788 788 788 786 787 787 0 786 785 786 786 785 785 786 786 785 785 784 784 785 784 784 784 784 783 780 0 0 0 0 0 0 0 0 0 0 0 0 0 0 0 0 0 0 1395 1388 1384 1381 1380 1379 1378 1378 1377 1378 1377 1377 1377 1376 1376 1375 1375 1376 1375 1374 1374 1373 1373 1373 1373 1373 1372 1371 1370 1369 1369 1369 1369 1369 1369 1369 1368 1367 1367 1367 1366 1367 1366 1366 1366 1366 1365 1364 1364 1364 1363 1362 1362 1361 1361 1361 1361 1361 1360 1360 1360 1359 1359 1358 1357 1357 1357 1357 1357 1358 1358 1357 1356 1356 1355 1355 1354 1354 1354 1354 1354 1354 1353 1353 1353 1353 1352 1352 1351 1350 1350 1350 1349 1348 1347 1347 1347 1347 1347 1347 1347 1346 1347 1347 1347 1348 1348 1348 1350 1351 1353 1359 1369 1384 1408 1428 1443 1452 1456 1458 1458 1458 1457 1456 1455 1454 1453 1453 1452 1453 1455 1457 0 0 0 0 0 0 0 0 0 0 0 0 0 2960 2940 2927 2920 0 0 0 0 0 0 0 0 0 1912 1912 1911 1909 1906 1904 1901 1895 1891 1113 1108 1104 1100 1098 1096 1095 1094 1093 1093 1094 1095 1097 1099 1101 1105 0 0 0 0 0 0 0 0 0 0 0 0 0 0 0 0 0 0 0 0 0 0 0 1819 1819 0 0 1816 1813 1813 0 0 0 1814 1818 1822 1826 1831 1835 1840 1843 1846 1849 1851 1852 1858 1862 1865 1870 1875 1881 1889 1895 1901 1910 1918 1926 1934 1945 0 0 0 0 0 0 0 0 0 0 0 0 0 0 0 0 0 0 0 0 0 1120 1111 1104 1099 1094 1091 1089 1087 1084 1082 1080 1078 1076 1075 1073 1071 1070 1068 1066 1064 1062 1061 1060 1059 1059 1059 1058 1057 1056 1055 1054 1053 1051 1049 1047 1046 1045 1044 1044 1043 1042 1042 1042 1042 1042 1041 1041 1041 1040 1040 1039 1038 1038 1038 1037 1037 1036 1036 1035 1035 1035 1035 1035 1036 1037 1037 1037 1037 1038 1038 1037 1037 1036 1034 1034 1034 1033 1032 1031 1030 1029 1028 1026 1025 1024 1022 1021 1021 1020 1020 1021 1020 1020 1020 1021 1022 1024 1025 1026 1028 1030 1033 1037 1040 1043 1046 1048 1050 1050 1051 1051 1052 1051 1050 1049 0 0 0 0 0 0 0 0 0 0 0 0 0 0 0 0 0 0 0 0 0 0 0 0 0 0 0 0 0 0 0 0 0 0 0 0 0 0 0 0 0 0 0 0 0 0 0 0 0 0 0 0 0 0 0 0 0 0 0 0 0 0 0 0 0 0 0 0 0 0 0 0 0 0 0 0 0 0 0 0 0 0 0 0 0 0 0 0 0 0 0 0 0 0 0 0 0 0 0 0 0 0 0 0 0 0 0 0 0 0 0 0 0 0 0 0 0 0 0 0 0 0 0 0 0 0 0 0 0 0 0 0 0 0 0 0 0 0 0 0 0 0 0 0 0 0 0 0 0 0 0 0 0 0 0 0 0 0 0 0 0 0 0 0 0 0 0 0
6359 6362 6368 6373 6377 0 0 0 0 0 0 0 0 0 0 0 0 6352 6353 0 0 0 6359 6360 6363 6365 6363 6359 6356 6354 6356 6357 6358 6358 6359 6361 6365 6368 6372 6370 6366 6366 6365 6365 6364 6362 6361 6363 6365 6367 0 0 6363 6363 6365 6363 6358 6359 6361 6363 6363 6364 6364 6363 6363 6363 6364 6364 6364 6363 6363 6364 6364 6364 6361 6355 6356 6357 6356 6356 6358 6359 6359 6358 6357 6353 6353 6355 6355 6355 6356 6357 6359 6361 6361 6359 6359 6360 6359 6358 6356 0 0 0 0 0 0 0 0 0 0 0 0 0 0 0 0 0 0 0 0 0 0 0 0 0 0 0 0 0 0 0 0 0 0 0 0 0 0 0 0 0 0 0 0 0 0 0 0 0 0 0 0 0 0 0 0 0 0 0 0 0 0 0 0 0 0 0 0 0 0 0 0 0 0 0 0 0 0 0 0 0 0 0 0 0 0 0 0 0 0 0 0 0 0 0 0 0 0 0 0 0 0 0 0 0 0 0 0 0 0 0 0 0 0 0 0 0 0 0 0 0 0 0 0 0 0 6347 6348 0 0 0 0 0 0 0 0 0 0 0 0 0 0 0 0 0 0 6336 6336 6339 6341 6343 6344 6347 6348 6349 6349 6347 6347 6347 6348 6347 0 0 0 0 0 0 0 0 0 0 0 0 0 0 0 0 0 0 0 0 0 0 0 0 0 0 0 0 0 0 0 0 0 0 0 0 0 0 0 0 0 0 0 0 0 0 0 0 0 0 0 0 0 0 0 0 0 0 0 0 6326 6325 6321 6321 6320 6320 6322 6324 6328 6331 0 0 0 0 0 0 0 0 0 0 0 768 779 788 793 794 795 796 796 797 797 797 797 796 796 796 796 795 795 795 795 794 794 794 794 794 794 794 794 794 794 794 794 794 794 794 794 795 794 794 793 793 793 793 793 792 792 792 792 792 792 792 792 791 791 791 791 793 793 791 790 790 789 788 788 788 788 787 786 785 785 785 785 785 786 787 786 787 0 0 787 787 788 788 788 788 789 790 791 0 0 790 789 789 788 788 790 0 0 0 791 791 791 790 790 791 0 790 789 789 0 0 788 788 788 787 786 787 0 786 785 786 785 785 785 786 786 785 785 785 784 785 784 785 784 783 782 778 0 0 0 0 0 0 0 0 0 0 0 0 0 0 0 0 0 0 1398 1389 1385 1381 1380 1379 1379 1378 1378 1378 1377 1377 1377 1377 1376 1375 1375 1375 1375 1374 1374 1374 1373 1373 1373 1373 1372 1371 1371 1370 1369 1369 1369 1369 1369 1369 1368 1368 1367 1367 1366 1367 1367 1366 1366 1366 1365 1364 1363 1363 1363 1362 1362 1361 1362 1362 1361 1360 1360 1360 1359 1359 1358 1358 1357 1357 1357 1357 1357 1358 1358 1357 1357 1356 1355 1355 1354 1354 1354 1353 1353 1353 1353 1353 1353 1353 1353 1352 1352 1352 1351 1350 1349 1349 1348 1347 1347 1347 1347 1346 1346 1346 1346 1347 1347 1347 1348 1348 1349 1351 1353 1358 1367 1382 1406 1427 1442 1450 1455 1457 1458 1458 1457 1456 1455 1454 1453 1453 1452 1453 1455 1457 1479 0 0 0 0 0 0 0 0 0 0 0 0 2956 2935 2914 2902 0 0 0 0 1902 1904 1909 1912 1913 1913 1912 1910 1909 1905 1902 1898 1893 1114 1108 1103 1100 1099 1097 1095 1096 1096 1096 1096 1098 1099 1102 1105 0 0 0 0 0 0 0 0 0 0 0 0 0 0 0 0 0 0 1827 1826 1824 1823 1822 1822 1820 1820 1819 1818 1815 1814 1812 1811 1810 1810 1810 1810 1814 1820 1826 1830 1834 1840 1841 1843 1846 1846 1845 1846 1849 1852 1858 1863 1869 1877 1885 1889 1897 1909 0 0 0 0 0 0 0 0 0 0 0 0 0 0 0 0 0 0 0 0 0 0 0 0 1121 1111 1104 1098 1094 1091 1088 1086 1084 1081 1079 1078 1076 1074 1072 1070 1068 1067 1065 1064 1062 1061 1060 1059 1059 1059 1058 1057 1056 1055 1053 1052 1051 1049 1048 1046 1045 1044 1044 1043 1043 1042 1042 1042 1041 1040 1040 1040 1039 1039 1038 1038 1037 1037 1037 1037 1036 1036 1035 1035 1036 1035 1035 1036 1037 1037 1037 1037 1037 1037 1037 1037 1036 1034 1034 1034 1033 1032 1032 1031 1030 1029 1028 1027 1025 1023 1022 1021 1020 1019 1019 1019 1019 1019 1019 1019 1020 1021 1022 1024 1027 1030 1033 1036 1040 1043 1045 1048 1049 1050 1050 1051 1051 1050 1049 0 0 0 0 0 0 0 0 0 0 0 0 0 0 0 0 0 0 0 0 0 0 0 0 0 0 0 0 0 0 0 0 0 0 0 0 0 0 0 0 0 0 0 0 0 0 0 0 0 0 0 0 0 0 0 0 0 0 0 0 0 0 0 0 0 0 0 0 0 0 0 0 0 0 0 0 0 0 0 0 0 0 0 0 0 0 0 0 0 0 0 0 0 0 0 0 0 0 0 0 0 0 0 0 0 0 0 0 0 0 0 0 0 0 0 0 0 0 0 0 0 0 0 0 0 0 0 0 0 0 0 0 0 0 0 0 0 0 0 0 0 0 0 0 0 0 0 0 0 0 0 0 0 0 0 0 0 0 0 0 0 0 0 0 0 0 0 0
6361 6365 6372 6377 6380 0 0 0 0 0 0 0 0 0 0 0 6353 6355 6356 0 0 6361 6362 6363 6364 6365 6363 6359 6357 6355 6355 6356 6356 6357 6357 6359 6362 6365 6369 6367 6365 6364 6364 6365 6364 6360 6360 6360 6362 6364 0 0 0 6362 6365 6363 6361 6362 6364 6367 6368 6368 6368 6368 6368 6368 6367 6367 6366 6367 6368 6367 6368 6368 6365 6361 6360 6360 6355 6355 6357 6356 6355 6356 6355 6352 6354 6357 6355 6355 6357 6359 6360 6362 6363 6361 6360 6360 6360 6359 0 0 0 0 0 0 0 0 0 0 0 0 0 0 0 0 0 0 0 0 0 0 0 0 0 0 0 0 0 0 0 0 0 0 0 0 0 0 0 0 0 0 0 0 0 0 0 0 0 0 0 0 0 0 0 0 0 0 0 0 0 0 0 0 0 0 0 0 0 0 0 0 0 0 0 0 0 0 0 0 0 0 0 0 0 0 0 0 0 0 0 0 0 0 0 0 0 0 0 0 0 0 0 0 0 0 0 0 0 0 0 0 0 0 0 0 0 0 0 0 0 0 0 0 0 0 6344 6346 6346 6346 6346 6349 0 0 0 0 0 0 0 0 0 0 0 0 0 0 6343 6342 6341 6343 6343 6343 6342 6343 6343 6344 6347 6344 6344 6344 6344 6347 0 0 0 0 0 0 0 0 0 0 0 0 0 0 0 0 0 0 0 0 0 0 0 0 0 0 0 0 0 0 0 0 0 0 0 0 0 0 0 0 0 0 0 0 0 0 0 0 0 0 0 0 0 0 0 0 0 0 0 0 6321 6320 6318 6320 6320 6321 6323 6326 6330 6332 6332 0 6322 0 0 0 0 0 0 0 0 763 776 784 789 792 794 795 796 797 797 797 797 797 796 796 796 795 795 795 795 794 794 794 794 794 794 794 794 794 794 794 794 794 794 794 795 795 795 795 794 794 793 793 793 792 792 792 792 792 792 792 792 791 791 791 791 792 792 791 791 791 790 789 788 788 787 786 785 785 785 785 785 785 786 786 786 787 787 787 787 787 787 787 787 787 787 789 790 790 789 789 788 788 788 788 790 791 792 791 791 791 791 790 790 790 789 789 788 788 788 787 788 787 787 786 786 786 786 786 785 785 785 785 785 786 786 785 785 785 785 785 784 784 784 783 781 777 0 0 0 0 0 0 0 0 0 0 0 0 0 0 0 0 0 0 0 1392 1387 1382 1381 1380 1379 1378 1377 1377 1377 1376 1376 1376 1376 1376 1376 1376 1375 1374 1374 1374 1373 1373 1373 1373 1372 1371 1371 1370 1370 1370 1370 1369 1368 1368 1368 1368 1368 1368 1367 1367 1367 1367 1366 1366 1365 1364 1363 1363 1363 1362 1361 1361 1361 1362 1361 1361 1360 1360 1359 1359 1358 1357 1357 1357 1357 1356 1356 1357 1358 1357 1356 1356 1356 1355 1355 1354 1354 1354 1353 1353 1353 1354 1353 1353 1353 1352 1352 1351 1351 1351 1349 1348 1348 1347 1347 1347 1347 1347 1347 1347 1347 1347 1347 1347 1347 1348 1348 1350 1353 1358 1367 1381 1405 1425 1441 1450 1455 1457 1457 1457 1457 1456 1455 1454 1453 1454 1453 1453 1455 1457 1479 0 0 0 0 0 0 0 0 0 0 0 0 2947 0 2908 2890 0 0 0 0 1907 1908 1910 1913 1912 1913 1911 1909 1907 1904 1900 1896 1114 1108 1104 1101 1099 1097 1096 1096 1097 1099 1100 1101 1103 0 0 0 0 0 0 0 0 0 0 0 0 0 0 1826 1828 1830 1831 1831 1830 1828 1827 1826 1825 1824 1823 1821 1820 1820 1820 1818 1815 1813 1810 1809 1808 1806 1809 1810 1814 1818 1825 1831 1835 1841 1839 1839 1837 1835 1834 1836 1837 1839 1843 1846 1846 1849 1852 1850 0 0 0 0 0 0 0 0 0 0 0 0 0 0 0 0 0 0 0 0 0 0 0 0 0 0 0 1111 1103 1098 1094 1091 1089 1086 1083 1081 1078 1077 1075 1073 1071 1069 1068 1066 1065 1064 1063 1062 1061 1060 1060 1059 1058 1057 1057 1055 1053 1052 1051 1049 1048 1046 1045 1044 1043 1043 1043 1042 1042 1042 1041 1041 1040 1040 1039 1039 1039 1038 1038 1038 1038 1037 1037 1036 1036 1036 1036 1036 1036 1037 1038 1038 1037 1037 1036 1036 1036 1036 1036 1034 1034 1034 1033 1033 1033 1032 1032 1031 1030 1028 1026 1024 1023 1021 1020 1019 1019 1018 1018 1017 1017 1017 1018 1018 1019 1021 1023 1025 1028 1032 1035 1039 1042 1044 1046 1047 1048 1049 1049 1049 1048 0 0 0 0 0 0 0 0 0 0 0 0 0 0 0 0 0 0 0 0 0 0 0 0 0 0 0 0 0 0 0 0 0 0 0 0 0 0 0 0 0 0 0 0 0 0 0 0 0 0 0 0 0 0 0 0 0 0 0 0 0 0 0 0 0 0 0 0 0 0 0 0 0 0 0 0 0 0 0 0 0 0 0 0 0 0 0 0 0 0 0 0 0 0 0 0 0 0 0 0 0 0 0 0 0 0 0 0 0 0 0 0 0 0 0 0 0 0 0 0 0 0 0 0 0 0 0 0 0 0 0 0 0 0 0 0 0 0 0 0 0 0 0 0 0 0 0 0 0 0 0 0 0 0 0 0 0 0 0 0 0 0 0 0 0 0 0 0
6361 6364 6370 6375 6377 0 0 0 0 0 0 0 0 0 0 0 6356 6358 0 6360 6361 6363 6365 6366 6366 6367 6364 6360 6358 6356 6356 6356 6356 6355 6355 6357 6359 6362 6365 6362 6359 6360 6360 6362 6361 6359 6359 6360 6363 6366 6366 6365 6363 6364 6367 6366 6363 6362 6362 6363 6364 6363 6363 6364 6366 6367 6369 6369 6369 6371 6372 6372 6371 6369 6366 6362 6361 6361 6357 6356 6358 6357 6356 6356 6355 6352 6354 6358 6356 6356 6358 6359 6361 6363 6364 6362 6362 6362 6362 0 0 0 0 0 0 0 0 0 0 0 0 0 0 0 0 0 0 0 0 0 0 0 0 0 0 0 0 0 0 0 0 0 0 0 0 0 0 0 0 0 0 0 0 0 0 0 0 0 0 0 0 0 0 0 0 0 0 0 0 0 0 0 0 0 0 0 0 0 0 0 0 0 0 0 0 0 0 0 0 0 0 0 0 0 0 0 0 0 0 0 0 0 0 0 0 0 0 0 0 0 0 0 0 0 0 0 0 0 0 0 0 0 0 0 0 0 0 0 0 0 0 0 0 0 0 6341 6344 6346 6346 6345 6347 6350 0 0 0 0 0 0 0 0 0 0 0 0 6348 6346 6347 6346 6342 6346 6347 6346 6344 6343 6343 6342 6342 6342 6342 6342 6344 6350 0 0 0 0 0 0 0 0 0 0 0 0 0 0 0 0 0 0 0 0 0 0 0 0 0 0 0 0 0 0 0 0 0 0 0 0 0 0 0 0 0 0 0 0 0 0 0 0 0 0 0 0 0 0 0 0 0 0 0 0 6316 6315 6312 6314 6313 6313 6316 6319 6326 0 0 0 0 0 0 0 693 701 0 0 0 0 0 779 785 789 792 794 796 796 796 797 797 797 796 796 795 795 795 795 794 794 794 794 794 794 794 794 794 794 794 794 794 794 794 795 795 795 795 795 794 794 793 793 793 792 792 792 792 792 792 792 792 791 791 791 791 791 791 791 791 790 789 788 788 787 786 786 785 784 784 784 784 785 785 786 786 786 786 0 0 786 787 787 787 787 787 789 789 789 787 787 786 786 786 787 789 790 790 790 790 790 790 790 790 790 789 789 788 788 788 787 787 787 787 786 785 786 786 785 785 785 785 785 785 786 786 785 785 785 785 786 785 785 784 783 781 777 0 0 0 0 0 0 0 0 0 0 0 0 0 0 0 0 0 0 0 1394 1388 1384 1382 1381 1379 1378 1377 1377 1376 1376 1376 1376 1376 1375 1375 1374 1374 1373 1373 1373 1373 1372 1372 1372 1372 1371 1371 1370 1369 1369 1369 1369 1368 1367 1367 1367 1367 1367 1367 1367 1367 1367 1366 1365 1365 1365 1364 1362 1362 1362 1362 1361 1361 1361 1361 1360 1360 1359 1359 1359 1358 1357 1356 1356 1357 1356 1356 1356 1357 1357 1356 1355 1355 1355 1355 1354 1354 1354 1354 1353 1353 1353 1353 1352 1352 1352 1352 1351 1350 1350 1350 1349 1348 1347 1347 1347 1347 1347 1347 1347 1346 1346 1346 1346 1347 1347 1347 1349 1352 1357 1366 1379 1404 1426 1441 1450 1455 1457 1458 1458 1458 1456 1455 1455 1454 1454 1453 1454 1455 1458 0 0 0 0 0 0 0 0 0 0 0 0 0 0 0 0 0 0 0 0 1904 1909 1911 1912 1913 1911 1911 1910 1908 1905 1902 1898 1115 1107 1104 1101 1099 1098 1098 1097 1097 1100 1102 1105 1108 0 0 0 0 0 0 0 0 0 0 0 0 0 0 1834 1834 1833 1834 1835 1834 1832 1830 1828 1827 1826 1824 1823 1822 1820 1820 1820 1819 1816 1813 1810 1809 1807 1804 1806 1810 1814 1819 1824 1830 1835 1840 1838 1834 1829 1823 1821 1821 1819 1819 1818 1818 1817 1817 1813 1806 1815 0 0 0 0 0 0 0 0 0 0 0 0 0 1329 1330 0 0 0 0 0 0 0 0 0 0 0 1111 1103 1097 1094 1090 1088 1086 1083 1081 1079 1077 1075 1073 1072 1070 1067 1066 1065 1064 1063 1062 1061 1060 1060 1059 1058 1057 1056 1055 1053 1052 1050 1048 1047 1046 1045 1044 1043 1042 1042 1042 1041 1041 1041 1041 1040 1040 1039 1038 1038 1038 1038 1038 1038 1037 1037 1036 1036 1036 1036 1036 1035 1036 1037 1037 1037 1037 1036 1036 1036 1036 1035 1035 1034 1034 1034 1033 1033 1033 1033 1032 1031 1030 1027 1025 1024 1022 1021 1020 1019 1018 1018 1017 1016 1015 1016 1016 1017 1018 1019 1021 1024 1026 1030 1033 1036 1039 1040 1042 1044 1045 1046 1046 1046 0 0 0 0 0 0 0 0 0 0 0 0 0 0 0 0 0 0 0 0 0 0 0 0 0 0 0 0 0 0 0 0 0 0 0 0 0 0 0 0 0 0 0 0 0 0 0 0 0 0 0 0 0 0 0 0 0 0 0 0 0 0 0 0 0 0 0 0 0 0 0 0 0 0 0 0 0 0 0 0 0 0 0 0 0 0 0 0 0 0 0 0 0 0 0 0 0 0 0 0 0 0 0 0 0 0 0 0 0 0 0 0 0 0 0 0 0 0 0 0 0 0 0 0 0 0 0 0 0 0 0 0 0 0 0 0 0 0 0 0 0 0 0 0 0 0 0 0 0 0 0 0 0 0 0 0 0 0 0 0 0 0 0 0 0 0 0 0
6361 6363 6368 6371 0 0 0 0 0 0 0 0 0 0 0 0 0 0 0 0 6362 6364 6365 6365 6365 6365 6363 6360 6359 6357 6357 6357 6357 6356 6355 6357 6360 6363 6366 6362 6359 6360 6361 6364 6363 0 0 0 0 0 0 0 6364 6365 6368 6369 6367 6365 6364 6365 6364 6363 6362 6362 6363 6365 6368 6369 6370 6371 6374 6374 6373 6370 6366 6361 6361 6361 6358 6357 6359 6359 6358 6359 6357 6354 6355 6358 6356 6356 6358 6359 6359 6362 6363 6363 6364 0 0 0 0 0 0 0 0 0 0 0 0 0 0 0 0 0 0 0 0 0 0 0 0 0 0 0 0 0 0 0 0 0 0 0 0 0 0 0 0 0 0 0 0 0 0 0 0 0 0 0 0 0 0 0 0 0 5020 5024 5026 5029 5031 5033 5035 5037 0 0 0 0 0 0 0 0 0 0 0 0 0 0 0 0 0 0 0 0 0 0 0 0 0 0 0 0 0 0 0 0 0 0 0 0 0 0 0 0 0 0 0 0 0 0 0 0 0 0 0 0 0 0 0 0 0 0 0 0 0 0 0 6344 6345 6348 6347 6345 6350 6352 6354 0 0 0 0 0 0 0 0 0 0 0 6350 6348 6349 6347 6343 6344 6345 6345 6343 6342 6343 6342 6341 6340 6341 6341 6341 0 0 0 0 0 0 0 0 0 0 0 0 0 0 0 0 0 0 0 0 0 0 0 0 0 0 0 0 0 0 0 0 0 0 0 0 0 0 0 0 0 0 0 0 0 0 0 0 0 0 0 0 0 0 0 0 0 0 0 0 0 0 0 0 6304 6302 6301 6303 6307 0 0 0 0 0 0 0 0 693 701 710 722 0 0 761 774 782 787 790 793 795 796 796 797 797 797 796 796 795 795 795 795 795 794 794 794 794 794 794 794 794 794 794 795 795 794 795 795 795 795 795 795 795 794 793 793 793 793 792 792 791 791 791 791 791 791 790 790 790 790 790 790 789 789 788 788 787 787 786 785 785 785 785 785 785 785 785 786 785 786 786 787 787 786 787 786 787 787 787 788 788 788 787 786 786 785 786 786 789 789 789 790 789 789 789 788 788 788 788 788 788 787 788 787 786 786 786 786 786 786 786 785 785 785 785 785 785 785 786 785 785 785 785 785 785 785 784 783 781 776 0 0 0 0 0 0 0 0 0 0 0 0 0 0 0 0 0 0 0 1398 1390 1385 1382 1380 1379 1377 1376 1376 1376 1376 1376 1376 1376 1375 1375 1375 1375 1374 1375 1374 1373 1373 1373 1372 1371 1371 1371 1371 1370 1369 1369 1369 1368 1367 1367 1367 1367 1367 1367 1368 1367 1367 1366 1365 1364 1364 1363 1362 1362 1362 1362 1361 1361 1361 1361 1361 1360 1359 1359 1359 1358 1357 1356 1356 1357 1357 1356 1356 1356 1356 1356 1355 1355 1355 1355 1354 1354 1354 1354 1353 1353 1354 1353 1352 1352 1352 1351 1351 1350 1350 1350 1349 1348 1348 1348 1347 1347 1346 1346 1346 1346 1345 1345 1345 1346 1346 1347 1348 1351 1355 1364 1378 1404 1426 1441 1450 1454 1456 1457 1457 1457 1456 1455 1454 1454 1454 1454 1454 1456 1459 0 0 0 0 0 0 0 0 0 0 0 0 0 2952 0 0 0 0 0 0 1903 1912 1912 1912 1913 1912 1911 1909 1906 1903 1122 1114 1108 1103 1102 1100 1099 1098 1098 1099 1102 1107 1111 1115 0 0 0 0 0 0 0 0 0 0 0 0 1835 1835 1836 1837 1838 1837 1836 1836 1834 1833 1831 1827 1826 1824 1823 1822 1821 1819 1819 1818 1818 1816 1814 1811 1810 1808 1805 1805 1807 1811 0 0 0 0 0 1833 1827 1821 1814 1807 1806 1803 1799 1796 1794 1793 1793 1790 1779 1782 1788 1778 0 0 0 0 0 0 0 0 0 0 1326 1328 1329 0 0 0 0 0 0 0 0 0 0 0 1110 1104 1098 1094 1090 1088 1086 1083 1081 1079 1077 1074 1072 1071 1070 1067 1066 1065 1064 1063 1062 1061 1059 1059 1058 1057 1056 1055 1054 1053 1051 1049 1048 1046 1045 1044 1043 1042 1041 1041 1041 1041 1041 1041 1041 1040 1039 1039 1038 1038 1038 1038 1037 1037 1037 1036 1036 1037 1037 1037 1036 1035 1036 1036 1036 1037 1037 1036 1036 1035 1035 1035 1034 1034 1034 1034 1034 1034 1034 1033 1033 1032 1031 1029 1026 1025 1023 1022 1021 1020 1019 1018 1017 1015 1015 1014 1015 1015 1016 1016 1018 1020 1022 1024 1026 1029 1032 1034 1036 1038 1040 1040 1041 1042 0 0 0 0 0 0 0 0 0 0 0 0 0 0 0 0 0 0 0 0 0 0 0 0 0 0 0 0 0 0 0 0 0 0 0 0 0 0 0 0 0 0 0 0 0 0 0 0 0 0 0 0 0 0 0 0 0 0 0 0 0 0 0 0 0 0 0 0 0 0 0 0 0 0 0 0 0 0 0 0 0 0 0 0 0 0 0 0 0 0 0 0 0 0 0 0 0 0 0 0 0 0 0 0 0 0 0 0 0 0 0 0 0 0 0 0 0 0 0 0 0 0 0 0 0 0 0 0 0 0 0 0 0 0 0 0 0 0 0 0 0 0 0 0 0 0 0 0 0 0 0 0 0 0 0 0 0 0 0 0 0 0 0 0 0 0 0 0
0 6361 6366 0 0 0 0 0 0 0 0 0 0 0 0 0 0 0 0 6362 6363 6364 6364 6364 6363 6362 6360 6358 6360 6358 6357 6357 6358 6358 6356 6358 6360 6360 6363 0 0 0 0 0 0 0 0 0 0 0 0 0 0 6367 6370 6370 6370 6368 6367 6368 6367 6365 6363 6362 6364 6365 6368 6369 6368 6370 6371 6371 6370 6367 6363 6358 6359 6359 6358 6358 6360 6361 6361 6360 6358 6355 6355 6357 6354 6353 6354 6356 6357 6359 6360 6362 6363 0 0 0 0 0 0 0 0 0 0 0 0 0 0 0 0 0 0 0 0 0 0 0 0 4668 4664 4662 4660 4660 4668 4678 4686 0 0 0 0 0 0 0 0 0 0 0 0 0 0 0 0 0 0 0 0 0 4968 4987 5004 5016 5021 5025 5029 5031 5033 5035 5036 5039 5042 5046 0 0 0 0 0 0 0 0 0 0 0 0 0 0 0 0 0 0 0 0 0 0 0 0 0 0 0 0 0 0 0 0 0 0 0 0 0 0 0 0 0 0 0 0 0 0 0 0 0 0 0 0 0 0 0 0 0 0 0 0 0 0 6345 6346 6346 6344 6348 6350 6351 0 0 0 0 0 0 0 0 0 0 0 6350 6349 6350 6349 6344 6344 6345 6344 6343 6341 6340 6339 6338 6337 6339 6340 0 0 0 0 0 0 0 0 0 0 0 0 0 0 0 0 0 0 0 0 0 0 0 0 0 0 0 0 0 0 0 0 0 0 0 0 0 0 0 0 0 0 0 0 0 0 0 0 0 0 0 0 0 0 0 0 0 0 0 0 0 0 0 0 0 0 0 0 0 0 0 0 0 0 0 0 0 0 694 702 711 721 732 744 756 769 778 784 788 791 793 795 795 796 796 796 796 795 795 795 795 795 795 795 795 795 794 794 794 794 794 794 794 794 795 794 795 795 795 795 794 794 794 794 794 793 793 793 792 792 792 791 791 791 790 790 790 789 789 789 788 788 788 787 787 786 786 785 785 785 785 785 785 785 785 785 785 785 786 786 786 786 787 786 786 786 786 786 787 788 788 788 787 786 786 786 785 786 787 788 788 789 789 788 788 787 787 787 787 787 786 787 787 787 786 786 786 786 786 786 786 785 785 785 785 785 785 785 785 785 785 785 785 785 785 784 784 783 781 0 0 0 0 0 0 0 0 0 0 0 0 0 0 0 0 0 0 0 0 1401 1392 1386 1382 1380 1379 1378 1376 1376 1376 1376 1376 1376 1376 1375 1375 1375 1375 1375 1374 1374 1373 1372 1372 1372 1371 1371 1371 1371 1370 1370 1369 1369 1368 1368 1367 1367 1367 1367 1367 1368 1367 1366 1366 1365 1365 1364 1363 1363 1363 1363 1362 1361 1361 1362 1362 1361 1361 1360 1359 1358 1358 1358 1357 1357 1357 1357 1356 1356 1356 1356 1355 1354 1354 1354 1355 1354 1354 1354 1354 1354 1353 1354 1353 1352 1352 1351 1351 1350 1350 1350 1349 1349 1348 1348 1348 1347 1346 1346 1346 1346 1346 1345 1345 1345 1345 1345 1346 1347 1350 1354 1363 1376 1401 1423 1440 1449 1454 1456 1456 1456 1456 1456 1455 1454 1453 1453 1453 1454 1455 1459 1478 0 0 0 0 0 0 0 0 0 0 0 0 0 0 0 0 0 0 0 1904 1911 1910 1910 1910 1909 1907 1905 1902 1121 1112 1108 1103 1101 1100 1100 1100 1101 1102 1104 1110 1115 0 0 0 0 0 0 0 0 0 0 0 0 1839 1839 1839 1839 1839 1839 1839 1838 1837 1836 1835 1832 1831 1828 1826 1825 1823 1821 1820 1819 1818 1817 1817 1815 1813 1811 1810 1809 1807 1806 1807 0 0 0 0 0 0 0 1818 1809 1805 1799 1791 1788 1786 1785 1783 1780 1780 1778 1774 1771 1768 1765 1762 1760 1757 1756 1755 1756 0 0 0 0 1325 1327 0 0 0 0 0 0 0 0 0 0 0 0 1110 1103 1099 1095 1091 1088 1086 1084 1081 1079 1076 1074 1071 1070 1068 1067 1066 1064 1063 1062 1061 1060 1059 1058 1058 1056 1055 1054 1054 1053 1051 1049 1047 1046 1045 1044 1043 1042 1041 1041 1041 1041 1041 1041 1040 1040 1039 1039 1038 1038 1037 1037 1037 1037 1037 1036 1036 1037 1037 1037 1036 1035 1035 1036 1036 1036 1036 1036 1035 1035 1035 1035 1034 1034 1034 1034 1034 1034 1034 1034 1033 1033 1032 1030 1028 1027 1025 1024 1023 1022 1021 1019 1018 1017 1017 1016 1015 1015 1015 1015 1016 1016 1018 1019 1021 1022 1024 1027 1029 1031 1033 1034 1035 1036 0 0 0 0 0 0 0 0 0 0 0 0 0 0 0 0 0 0 0 0 0 0 0 0 0 0 0 0 0 0 0 0 0 0 0 0 0 0 0 0 0 0 0 0 0 0 0 0 0 0 0 0 0 0 0 0 0 0 0 0 0 0 0 0 0 0 0 0 0 0 0 0 0 0 0 0 0 0 0 0 0 0 0 0 0 0 0 0 0 0 0 0 0 0 0 0 0 0 0 0 0 0 0 0 0 0 0 0 0 0 0 0 0 0 0 0 0 0 0 0 0 0 0 0 0 0 0 0 0 0 0 0 0 0 0 0 0 0 0 0 0 0 0 0 0 0 0 0 0 0 0 0 0 0 0 0 0 0 0 0 0 0 0 0 0 0 0 0
0 0 6368 0 0 0 0 0 0 0 0 0 0 0 0 0 0 6361 6363 0 0 6365 6365 6365 6364 6363 6360 6358 6360 6360 6358 6359 6360 6360 6358 6359 0 0 0 0 0 0 0 0 0 0 0 0 0 0 0 0 0 6369 6373 6374 6373 6371 6370 6369 6368 6366 6364 6363 6364 6366 6369 6369 6369 6371 6372 6370 6368 6364 6361 6358 6358 6358 6356 6356 6357 6358 6359 6359 6358 6355 6357 6358 6357 6355 6356 6356 6357 6358 6360 6362 0 0 0 0 0 0 0 0 4663 4665 4667 4667 4666 4664 4661 4660 4661 4664 4667 4669 4671 4672 4673 4671 4668 4665 4662 4659 4658 4658 4664 4672 4679 0 0 0 0 0 0 0 0 0 0 0 0 0 0 0 0 0 0 0 0 0 0 4987 5004 5018 5023 5028 5031 5033 5034 5035 5037 5039 5042 5047 0 0 0 0 0 0 0 0 0 0 0 0 0 0 0 0 0 0 0 0 0 0 0 0 0 0 0 0 0 0 0 0 0 0 0 0 0 0 0 0 0 0 0 0 0 0 0 0 0 0 0 0 0 0 0 0 0 0 0 0 0 0 0 6347 6347 6346 6349 6351 6353 0 0 0 0 0 0 0 0 0 0 6349 6348 6347 6348 6347 6344 6343 6345 6344 6342 6340 6338 6336 6334 6333 6336 6338 6339 0 0 0 0 0 0 0 0 0 0 0 0 0 0 0 0 0 0 0 0 0 0 0 0 0 0 0 0 0 0 0 0 0 0 0 0 0 0 0 0 0 0 0 0 4893 0 0 0 4852 4843 0 0 4818 4812 0 0 0 0 0 0 0 0 0 0 0 0 0 0 0 0 0 0 0 0 0 0 0 696 704 713 723 0 0 756 768 776 782 786 789 791 793 794 795 795 795 795 794 794 794 794 794 794 795 795 795 795 794 794 794 794 794 794 794 795 794 795 795 795 795 794 794 794 793 793 793 792 793 792 792 791 791 791 790 790 789 789 788 788 788 787 787 786 786 785 785 785 784 783 783 784 784 784 784 785 785 785 786 786 786 786 786 786 786 785 786 786 786 786 787 787 787 786 786 786 786 785 786 787 787 787 788 788 787 787 787 786 786 786 786 786 786 786 786 786 786 786 786 786 786 785 785 785 785 785 785 785 785 785 785 785 785 785 785 785 784 784 783 781 0 0 0 0 0 0 0 0 0 0 0 0 0 0 0 0 0 0 0 0 0 1395 1388 1383 1381 1379 1378 1377 1377 1377 1376 1375 1376 1376 1376 1375 1375 1375 1375 1374 1373 1373 1373 1372 1372 1371 1371 1371 1370 1370 1370 1369 1369 1368 1368 1367 1367 1367 1367 1367 1367 1367 1366 1365 1365 1365 1365 1364 1363 1363 1363 1363 1362 1361 1362 1362 1362 1361 1360 1360 1359 1358 1358 1357 1357 1357 1357 1356 1356 1356 1356 1355 1355 1354 1354 1354 1354 1354 1354 1354 1354 1353 1353 1353 1352 1352 1351 1351 1350 1350 1350 1349 1348 1348 1347 1347 1346 1346 1345 1345 1345 1345 1344 1344 1343 1344 1343 1343 1345 1347 1352 1360 1373 1398 1420 1438 1447 1453 1455 1456 1456 1456 1455 1454 1454 1453 1453 1453 1453 1455 1459 1478 0 0 0 0 0 0 0 0 0 0 0 0 0 0 0 0 0 0 0 1901 1907 1909 1909 1908 1907 1905 1902 1121 1111 1105 1103 1101 1099 1100 1101 1102 1105 1110 1112 0 0 0 0 0 0 0 0 0 0 0 0 0 1844 1845 1844 1843 1841 1841 1840 1839 1838 1837 1836 1835 1833 1830 1828 1826 1825 1823 1821 1820 1819 1817 1816 1816 1815 1813 0 0 0 0 0 0 0 0 0 0 0 0 1816 1809 1799 1793 1789 1785 1782 1780 1778 1777 1775 1775 1773 1770 1767 1765 1762 1760 1758 1756 1755 1754 1754 1755 1755 0 0 1325 0 0 0 0 0 0 0 0 0 0 0 0 0 1111 1103 1099 1095 1091 1089 1086 1083 1080 1078 1075 1073 1070 1069 1067 1065 1064 1064 1062 1062 1061 1060 1059 1058 1057 1056 1055 1054 1053 1053 1051 1049 1047 1046 1045 1044 1043 1041 1041 1040 1040 1040 1040 1040 1040 1039 1039 1038 1037 1037 1037 1037 1037 1037 1037 1037 1037 1037 1038 1038 1037 1036 1036 1036 1036 1036 1035 1035 1034 1034 1035 1035 1034 1034 1034 1034 1035 1035 1034 1034 1033 1033 1033 1032 1030 1029 1027 1026 1025 1024 1023 1022 1020 1020 1018 1017 1016 1016 1015 1015 1015 1015 1015 1016 1017 1018 1019 1020 1022 1023 1025 1027 1028 1029 0 0 0 0 0 0 0 0 0 0 0 0 0 0 0 0 0 0 0 0 0 0 0 0 0 0 0 0 0 0 0 0 0 0 0 0 0 0 0 0 0 0 0 0 0 0 0 0 0 0 0 0 0 0 0 0 0 0 0 0 0 0 0 0 0 0 0 0 0 0 0 0 0 0 0 0 0 0 0 0 0 0 0 0 0 0 0 0 0 0 0 0 0 0 0 0 0 0 0 0 0 0 0 0 0 0 0 0 0 0 0 0 0 0 0 0 0 0 0 0 0 0 0 0 0 0 0 0 0 0 0 0 0 0 0 0 0 0 0 0 0 0 0 0 0 0 0 0 0 0 0 0 0 0 0 0 0 0 0 0 0 0 0 0 0 0 0 0
0 0 0 0 0 0 0 0 0 0 0 0 0 0 0 0 0 0 0 0 0 0 6369 6369 6368 6367 6364 6362 6364 6364 6362 6361 6363 6363 6360 0 0 0 0 0 0 0 0 0 0 0 0 0 0 0 0 6366 6367 6370 6374 6374 6373 6369 6368 6369 6368 6366 6364 6363 6364 6366 6368 6367 6366 6367 6369 6369 6366 6362 6360 6358 6358 6358 6356 6355 6356 6358 6359 6359 6359 6357 6360 6362 6360 6359 6359 6358 6358 6358 6359 6362 0 0 0 0 0 0 0 0 4662 4664 4666 4666 4665 4663 4659 4658 4658 4661 4663 4665 4666 4668 4670 4669 4666 4664 4662 4660 4659 4660 4663 4669 4677 4683 0 0 0 0 0 0 0 0 0 0 0 0 0 0 0 0 0 0 0 0 0 0 5002 5015 5022 5026 5030 5034 5035 5037 5038 5039 5041 5044 5046 0 0 0 0 0 0 0 0 0 0 0 0 0 0 0 0 0 0 0 0 0 0 0 0 0 0 0 0 0 0 0 0 0 0 0 0 0 0 0 0 0 0 0 0 0 0 0 0 0 0 0 0 0 0 0 0 0 0 0 0 0 0 6350 6350 6349 6351 6354 6356 0 0 0 0 0 0 0 0 0 0 0 6346 6344 6344 6343 6341 6340 6343 6343 6340 6339 6337 6336 6334 6330 6333 6336 6337 6342 6345 6347 0 0 0 0 0 0 0 0 0 0 0 0 0 0 0 0 0 0 0 0 0 0 0 0 0 0 0 0 0 0 0 0 0 0 0 0 0 0 0 0 0 4887 0 0 0 0 0 4831 4825 4818 4811 4802 0 0 0 0 0 0 0 0 0 0 0 0 0 0 0 0 0 0 0 0 0 0 699 707 0 0 0 0 763 771 777 781 785 788 791 792 793 794 794 794 794 793 793 793 793 793 794 794 795 795 795 795 794 795 794 795 795 795 795 795 795 795 795 795 794 794 794 793 793 793 793 792 792 791 790 790 790 789 788 787 787 787 787 787 787 786 785 785 785 784 784 784 783 783 783 784 784 784 785 785 785 786 787 786 786 786 786 785 785 785 786 786 786 787 786 786 786 785 785 785 785 786 787 787 787 787 787 787 787 787 787 786 786 786 786 786 786 786 786 786 786 786 785 786 785 785 785 785 785 785 785 785 785 785 785 785 784 784 784 784 784 783 781 0 0 0 0 0 0 0 0 0 0 0 0 0 0 0 0 0 0 0 0 0 1397 1390 1385 1382 1381 1379 1377 1377 1377 1377 1376 1375 1376 1375 1375 1374 1374 1374 1374 1374 1373 1373 1372 1372 1371 1371 1370 1370 1369 1369 1369 1368 1368 1368 1368 1368 1368 1368 1368 1367 1366 1366 1365 1365 1364 1364 1364 1363 1363 1363 1363 1363 1362 1363 1363 1363 1362 1361 1361 1359 1359 1359 1357 1357 1358 1358 1357 1356 1356 1356 1356 1355 1354 1354 1354 1353 1353 1353 1353 1353 1353 1353 1352 1351 1351 1350 1349 1348 1348 1348 1348 1347 1346 1346 1346 1346 1345 1344 1343 1344 1344 1343 1342 1341 1341 1341 1340 1341 1344 1348 1356 1369 1394 1417 1435 1445 1451 0 0 0 0 1454 1453 1453 1453 1452 1452 1452 1453 1457 0 0 0 0 0 0 0 0 0 0 0 0 0 0 0 0 0 0 0 0 1897 1903 1905 1906 1906 1904 1901 1119 1110 1104 1100 1099 1098 1098 1100 1103 1105 1111 0 0 0 0 0 0 0 0 0 0 0 0 0 0 1847 1847 1847 1845 1844 1842 1841 1841 1841 1839 1838 1837 1835 1833 1830 1828 1826 1825 1823 1821 1820 1818 1816 1815 1815 1815 0 0 0 0 0 0 0 0 0 0 0 0 0 1809 1801 1791 1786 1782 1779 1778 1776 1774 1773 1772 1771 1770 1769 1765 1763 1761 1759 1757 1755 1754 1753 1754 1754 1754 1312 1319 0 0 0 0 0 0 0 0 0 0 0 0 0 0 1112 1102 1098 1094 1090 1088 1085 1082 1080 1077 1074 1072 1070 1068 1066 1065 1064 1063 1062 1061 1061 1060 1060 1058 1057 1056 1055 1054 1053 1053 1051 1049 1047 1046 1045 1044 1042 1041 1040 1040 1040 1040 1040 1040 1039 1039 1039 1038 1037 1037 1037 1037 1037 1037 1037 1037 1037 1037 1038 1038 1037 1036 1036 1036 1035 1035 1034 1034 1033 1033 1033 1033 1034 1033 1033 1033 1034 1034 1035 1035 1035 1034 1034 1033 1032 1031 1029 1028 1027 1026 1025 1024 1023 1022 1020 1019 1018 1017 1016 1015 1014 1014 1013 1013 1013 1014 1015 1015 1016 1017 1018 1019 1020 1021 0 0 0 0 0 0 0 0 0 0 0 0 0 0 0 0 0 0 0 0 0 0 0 0 0 0 0 0 0 0 0 0 0 0 0 0 0 0 0 0 0 0 0 0 0 0 0 0 0 0 0 0 0 0 0 0 0 0 0 0 0 0 0 0 0 0 0 0 0 0 0 0 0 0 0 0 0 0 0 0 0 0 0 0 0 0 0 0 0 0 0 0 0 0 0 0 0 0 0 0 0 0 0 0 0 0 0 0 0 0 0 0 0 0 0 0 0 0 0 0 0 0 0 0 0 0 0 0 0 0 0 0 0 0 0 0 0 0 0 0 0 0 0 0 0 0 0 0 0 0 0 0 0 0 0 0 0 0 0 0 0 0 0 0 0 0 0 0
0 0 0 0 0 0 0 0 0 0 0 0 0 0 0 0 0 0 0 0 0 0 6372 6372 6372 6372 6369 6367 6369 6369 6367 6365 6365 6364 6361 0 0 0 0 0 0 0 0 0 0 0 6359 6362 6367 6369 6369 6369 6369 6371 6375 6374 6372 6368 6366 6367 6367 6365 6363 6362 6364 6366 6369 6368 6365 6365 6366 6366 6363 6359 6358 6358 6358 6358 6357 6357 6356 6359 6360 6360 6360 6360 6363 6365 6363 6362 6361 6360 6360 6359 6360 6361 6364 0 0 0 0 0 0 4662 4663 4664 4665 4665 4664 4662 4656 4655 4655 4658 4660 4662 4663 4665 4667 4666 4664 4664 4662 4660 4658 4658 4664 4668 4673 4678 0 0 0 0 0 0 0 0 0 0 0 0 0 0 0 0 0 0 0 0 0 0 5003 5015 5022 5027 5031 5035 5037 5038 5037 5039 5040 5041 5043 5042 0 0 0 0 0 0 0 0 0 0 0 0 0 0 0 0 0 0 0 0 0 0 0 0 0 0 0 0 0 0 0 0 0 0 0 0 0 0 0 0 0 0 0 0 0 0 0 0 0 0 0 0 0 0 0 0 0 0 0 0 0 0 6350 6350 6351 6353 6355 0 0 0 0 0 0 0 0 0 0 0 0 0 6341 6340 6338 6338 6342 6344 6343 6340 6340 6337 6335 6335 6335 6339 6343 6346 6349 6349 6348 0 0 0 0 0 0 0 0 0 0 0 0 0 0 0 0 0 0 0 0 0 0 0 0 0 0 0 0 0 0 0 0 0 0 0 0 0 0 0 0 0 0 0 0 0 0 4834 4826 4817 4807 4799 0 0 0 0 0 0 0 0 0 0 0 0 0 0 0 0 0 0 0 0 0 0 0 714 0 0 0 0 768 773 778 782 785 787 789 790 792 793 793 793 793 792 792 791 791 791 792 793 794 795 795 795 795 795 795 795 795 795 795 794 795 795 794 794 794 794 793 793 793 793 793 792 792 791 790 788 788 787 786 785 786 786 786 786 786 785 784 784 784 784 783 784 784 783 783 783 783 783 784 784 784 785 785 785 785 784 784 785 785 786 786 787 787 788 788 786 786 786 786 786 785 786 787 787 787 787 787 787 787 787 787 787 786 786 786 786 786 786 786 786 786 786 786 786 785 785 785 785 785 785 785 785 785 785 785 785 784 784 784 784 784 783 781 0 0 0 0 0 0 0 0 0 0 0 0 0 0 0 0 0 0 0 0 0 0 1392 1386 1383 1381 1380 1379 1378 1377 1377 1376 1375 1375 1374 1374 1374 1374 1374 1374 1373 1373 1373 1373 1372 1372 1372 1371 1370 1369 1369 1369 1368 1368 1368 1368 1368 1368 1368 1368 1367 1367 1366 1365 1365 1364 1364 1364 1363 1363 1363 1363 1363 1362 1363 1363 1363 1363 1361 1361 1360 1359 1359 1358 1357 1357 1358 1357 1357 1357 1357 1356 1355 1355 1355 1355 1354 1354 1354 1354 1354 1353 1353 1352 1351 1350 1349 1348 1347 1347 1347 1347 1346 1345 1344 1344 1344 1343 1342 1342 1342 1341 1340 1339 1339 1338 1338 1338 1339 1341 1344 1353 1367 1391 1413 1430 1441 0 0 0 0 0 0 1452 1452 1451 1451 1450 1450 1450 0 0 0 0 0 0 0 0 0 0 0 0 0 0 0 0 0 0 0 0 0 0 0 0 1901 1901 1900 1120 1112 1105 1101 1098 1098 1098 1099 1103 1107 1112 0 0 0 0 0 0 0 0 0 0 0 0 1847 1849 1850 1849 1849 1848 1847 1845 1842 1842 1841 1841 1839 1837 1836 1834 1832 1830 1828 1826 1824 1822 1821 1819 1818 1816 1814 1813 1813 0 0 0 0 0 0 0 0 0 0 0 0 0 1803 1797 1786 1781 1778 1775 1774 1773 1772 1771 1770 1769 1768 1767 1764 1761 1760 1758 1756 1754 1753 1751 1753 1754 1753 1315 0 0 0 0 0 0 0 0 0 0 0 0 0 0 0 1110 1102 1097 1093 1089 1087 1084 1081 1079 1077 1074 1072 1070 1068 1066 1065 1064 1063 1062 1061 1061 1060 1059 1059 1058 1057 1056 1054 1053 1052 1051 1050 1048 1046 1045 1043 1042 1041 1040 1040 1039 1039 1039 1039 1039 1038 1038 1038 1038 1037 1037 1037 1037 1037 1037 1037 1037 1037 1037 1037 1037 1036 1035 1035 1035 1034 1034 1033 1033 1033 1033 1033 1034 1034 1034 1033 1034 1034 1034 1034 1033 1033 1033 1033 1032 1032 1031 1030 1030 1029 1028 1027 1026 1024 1023 1022 1020 1019 1018 1017 1015 1014 1013 1012 1012 1012 1012 1012 1011 1011 1012 1012 1013 1014 0 0 0 0 0 0 0 0 0 0 0 0 0 0 0 0 0 0 0 0 0 0 0 0 0 0 0 0 0 0 0 0 0 0 0 0 0 0 0 0 0 0 0 0 0 0 0 0 0 0 0 0 0 0 0 0 0 0 0 0 0 0 0 0 0 0 0 0 0 0 0 0 0 0 0 0 0 0 0 0 0 0 0 0 0 0 0 0 0 0 0 0 0 0 0 0 0 0 0 0 0 0 0 0 0 0 0 0 0 0 0 0 0 0 0 0 0 0 0 0 0 0 0 0 0 0 0 0 0 0 0 0 0 0 0 0 0 0 0 0 0 0 0 0 0 0 0 0 0 0 0 0 0 0 0 0 0 0 0 0 0 0 0 0 0 0 0 0
0 0 0 0 0 0 0 0 0 0 0 0 0 0 0 0 0 0 0 0 0 0 6370 6371 6371 6371 6371 6369 6370 6371 6369 6369 6369 6367 6364 0 0 0 0 0 0 0 0 0 0 6359 6361 6364 6369 6372 6372 6371 6370 6372 6374 6372 6370 6366 6365 6365 6365 6365 6362 6360 6363 6366 6369 6368 6365 6365 6366 6367 6364 6358 6357 6357 6358 6358 6358 6358 6358 6362 6364 6363 6362 6362 6364 6365 6362 6361 6361 6360 6359 6358 6358 6360 0 0 0 0 0 0 0 4664 4666 4664 4664 4665 4664 4662 4657 4655 4655 4659 4660 4661 4661 4663 4665 4666 4664 4663 4662 4660 4659 4659 4663 4667 4671 4676 0 0 0 0 0 0 0 0 0 0 0 0 0 0 0 0 0 0 0 0 0 0 5003 5016 5022 5028 5032 5037 5039 5039 5038 5038 5039 5040 5040 5039 0 0 0 0 0 0 0 0 0 0 0 0 0 0 0 0 0 0 0 0 0 0 6337 6334 0 0 0 0 0 0 0 0 0 0 0 0 0 0 0 0 0 0 0 0 0 0 0 0 0 0 0 0 0 0 0 0 0 0 0 0 0 0 6352 6351 6352 6353 0 0 0 0 0 0 0 0 0 0 0 0 0 0 6338 6337 6336 6338 6341 6343 6343 6340 6339 6339 6337 6338 6341 6341 6344 6347 6348 6348 6347 6349 6352 6352 6350 6345 6346 6345 6343 6341 6336 6336 0 0 0 0 0 0 0 0 0 0 0 0 0 0 0 0 0 0 0 0 0 0 0 0 0 0 0 0 0 0 0 0 0 0 0 4836 4827 4817 4806 4796 4787 0 0 4758 0 0 4735 4736 0 0 0 0 0 4676 4663 4647 0 0 0 0 0 0 0 722 730 0 0 763 772 776 780 783 785 787 789 790 791 792 792 792 792 791 791 790 790 790 791 792 793 794 794 795 795 795 795 795 795 795 795 794 794 794 794 794 794 793 793 793 793 793 792 792 792 790 788 786 785 784 783 783 784 785 786 786 786 785 784 784 784 783 783 783 783 783 783 783 783 784 784 785 785 785 785 784 783 783 783 783 783 785 786 786 787 787 788 788 788 789 789 789 789 788 788 787 787 787 787 787 787 787 787 787 786 787 786 786 786 786 786 786 786 786 786 786 785 785 785 785 786 785 785 785 785 785 785 785 784 784 784 784 783 782 780 0 0 0 0 0 0 0 0 0 0 0 0 0 0 0 0 0 0 0 0 0 0 1393 1387 1383 1381 1380 1379 1379 1378 1377 1376 1375 1375 1375 1375 1374 1374 1374 1374 1374 1373 1373 1374 1373 1372 1372 1371 1371 1370 1369 1369 1369 1369 1369 1369 1369 1369 1369 1368 1367 1366 1366 1365 1365 1364 1364 1364 1363 1363 1363 1363 1363 1363 1363 1362 1362 1362 1361 1361 1360 1359 1359 1358 1357 1357 1357 1357 1357 1357 1357 1357 1356 1355 1355 1355 1355 1354 1354 1354 1353 1352 1351 1351 1350 1348 1347 1345 1345 1344 1344 1344 1344 1343 1342 1341 1341 1340 1339 1338 1337 1337 1336 1335 1334 1334 1333 1333 1333 1335 1339 0 0 0 0 0 0 0 0 0 0 0 0 0 1450 1449 1448 1447 1446 1449 0 0 0 0 0 0 0 0 0 0 0 0 0 0 0 0 0 0 0 0 0 0 0 0 0 0 1119 1111 1105 1100 1097 1095 1096 1097 1099 1106 1111 0 0 0 0 0 0 0 0 0 0 0 0 1848 1850 1851 1851 1851 1849 1848 1847 1844 1842 1841 1841 1840 1838 1837 1835 1834 1832 1830 1828 1826 1824 1821 1820 1818 1816 1814 1812 1810 0 0 0 0 0 0 0 0 0 0 0 0 0 0 0 1795 1786 1781 1777 1775 1773 1771 1770 1769 1768 1768 1767 1766 1763 1760 1759 1757 1755 1753 1752 1751 1753 1754 0 0 0 0 0 0 0 0 0 0 0 0 0 0 0 0 0 1108 1101 1097 1092 1088 1086 1083 1080 1078 1076 1073 1071 1069 1067 1065 1064 1063 1062 1062 1061 1061 1060 1060 1059 1058 1057 1056 1055 1053 1052 1051 1050 1048 1047 1045 1044 1043 1042 1041 1040 1040 1039 1039 1039 1039 1038 1038 1038 1037 1037 1036 1036 1036 1037 1037 1037 1037 1037 1037 1037 1037 1036 1036 1035 1035 1034 1033 1032 1033 1033 1033 1033 1034 1034 1034 1034 1034 1034 1033 1033 1032 1032 1032 1032 1032 1032 1031 1031 1031 1030 1029 1029 1028 1027 1026 1024 1023 1021 1020 1019 1017 1015 1014 1012 1012 1011 1011 1011 1010 1010 1010 1009 1009 1008 0 0 0 0 0 0 0 0 0 0 0 0 0 0 0 0 0 0 0 0 0 0 0 0 0 0 0 0 0 0 0 0 0 0 0 0 0 0 0 0 0 0 0 0 0 0 0 0 0 0 0 0 0 0 0 0 0 0 0 0 0 0 0 0 0 0 0 0 0 0 0 0 0 0 0 0 0 0 0 0 0 0 0 0 0 0 0 0 0 0 0 0 0 0 0 0 0 0 0 0 0 0 0 0 0 0 0 0 0 0 0 0 0 0 0 0 0 0 0 0 0 0 0 0 0 0 0 0 0 0 0 0 0 0 0 0 0 0 0 0 0 0 0 0 0 0 0 0 0 0 0 0 0 0 0 0 0 0 0 0 0 0 0 0 0 0 0 0
0 0 0 0 0 0 0 0 0 0 0 0 0 0 0 0 0 0 0 0 0 0 6367 6367 6368 6368 6368 6369 6370 6370 6368 6368 6370 6370 6368 6369 6369 6366 6363 6361 6360 6360 6361 0 6362 6359 6362 6365 6368 6370 6368 6367 6366 6367 6370 6368 6366 6364 6363 6364 6365 6366 6363 6362 6364 6366 6368 6366 6363 6363 6363 6364 6363 6358 6357 6358 6360 6360 6360 6361 6361 6363 6365 6363 6364 6364 6365 6365 6362 6361 6361 6361 6360 6359 6358 6359 0 0 0 0 0 0 0 0 4664 4664 4663 4663 4663 4661 4657 4656 4656 4659 4661 4662 4661 4662 4665 4665 4665 4663 4662 4661 4661 4660 4662 4665 4668 4673 0 0 0 0 0 0 0 0 0 0 0 0 0 0 0 0 0 0 0 0 0 0 5001 5014 5020 5026 5031 5036 5038 5037 5036 5037 5040 5041 5041 5040 0 0 0 0 0 0 0 0 0 0 0 0 0 0 0 0 0 0 0 0 0 0 0 0 0 0 0 0 0 0 0 0 0 0 0 0 0 0 0 0 0 0 0 0 0 0 0 0 0 0 0 0 0 0 0 0 0 0 0 0 0 6352 6352 6351 6351 6352 0 0 0 0 0 0 0 0 0 0 0 0 0 0 6337 6337 6337 6341 6341 6342 6342 6340 6339 6337 6338 6341 6341 6344 6344 6345 6346 6346 6345 6346 6348 6349 6346 6343 6345 6345 6344 6342 6338 6339 6340 0 0 0 0 0 0 0 0 0 0 0 0 0 0 0 0 0 0 0 0 0 0 0 0 0 0 0 0 0 0 0 0 0 0 0 0 0 0 0 0 0 0 0 0 0 4733 4736 4727 4716 4708 4698 4688 4675 4662 4647 4633 0 0 0 0 0 0 729 739 747 758 769 776 780 783 784 786 787 789 790 790 791 791 791 791 790 790 789 789 789 790 791 792 793 793 794 794 794 794 794 794 794 794 794 794 794 793 793 793 793 792 793 793 792 792 791 790 788 786 783 782 781 780 781 783 784 785 786 786 785 784 784 784 783 783 783 783 783 782 782 783 783 784 784 785 785 784 784 783 783 783 783 783 784 785 786 787 787 788 788 788 788 788 788 788 788 788 788 787 787 787 787 787 787 787 787 786 787 787 786 786 786 786 786 786 786 786 785 785 785 785 786 786 786 786 786 786 786 785 785 785 785 784 784 783 782 780 0 0 0 0 0 0 0 0 0 0 0 0 0 0 0 0 0 0 0 0 0 1399 1393 1388 1384 1382 1381 1380 1379 1378 1378 1377 1376 1375 1374 1375 1374 1374 1374 1374 1374 1374 1373 1374 1373 1373 1372 1372 1371 1370 1370 1370 1369 1369 1369 1369 1369 1369 1369 1368 1367 1366 1365 1365 1365 1365 1365 1365 1364 1364 1364 1363 1363 1363 1363 1363 1363 1363 1362 1361 1360 1359 1359 1358 1357 1357 1357 1357 1357 1357 1357 1357 1356 1355 1355 1356 1355 1354 1354 1353 1353 1351 1350 1349 1347 1345 1343 1342 1340 1340 1339 1338 1339 1338 1336 0 0 1334 1332 1331 1331 0 0 0 0 0 0 0 0 0 0 0 0 0 0 0 0 0 0 0 0 0 0 0 0 0 0 0 0 0 0 0 0 0 0 0 0 0 0 0 0 0 0 0 0 0 0 0 0 0 0 0 0 0 0 1117 1109 1102 1098 1096 1094 1093 1093 1096 1099 1109 0 0 0 0 0 0 0 0 0 0 0 0 1849 1851 1852 1851 1851 1850 1849 1847 1846 1844 1841 1840 1839 1839 1838 1836 1835 1833 1832 1830 1828 1825 1823 1821 1819 1817 1815 1812 1810 1809 0 0 0 0 0 0 0 0 0 0 0 0 0 0 0 1794 1784 1779 1775 1773 1772 1770 1769 1768 1767 1767 1766 1765 1762 1760 1759 1757 1755 1753 1752 1751 1753 0 0 0 0 0 0 0 0 0 0 0 0 0 0 0 0 0 1117 1108 1101 1097 1093 1089 1086 1083 1080 1078 1075 1072 1070 1068 1066 1065 1063 1063 1062 1062 1062 1061 1061 1060 1060 1059 1057 1056 1055 1054 1053 1051 1050 1048 1047 1046 1044 1043 1042 1041 1041 1040 1039 1039 1039 1039 1038 1039 1038 1038 1038 1037 1037 1037 1037 1038 1038 1038 1038 1038 1037 1037 1036 1036 1035 1035 1034 1034 1033 1033 1034 1034 1034 1034 1034 1034 1034 1034 1034 1033 1033 1032 1032 1032 1032 1032 1032 1031 1031 1031 1031 1030 1030 1030 1029 1028 1027 1026 1024 1022 1022 1020 1019 1017 1015 1014 1013 1012 1011 1010 1009 1008 1007 1007 1006 0 0 0 0 0 0 0 0 0 0 0 0 0 0 0 0 0 0 0 0 0 0 0 0 0 0 0 0 0 0 0 0 0 0 0 0 0 0 0 0 0 0 0 0 0 0 0 0 0 0 0 0 0 0 0 0 0 0 0 0 0 0 0 0 0 0 0 0 0 0 0 0 0 0 0 0 0 0 0 0 0 0 0 0 0 0 0 0 0 0 0 0 0 0 0 0 0 0 0 0 0 0 0 0 0 0 0 0 0 0 0 0 0 0 0 0 0 0 0 0 0 0 0 0 0 0 0 0 0 0 0 0 0 0 0 0 0 0 0 0 0 0 0 0 0 0 0 0 0 0 0 0 0 0 0 0 0 0 0 0 0 0 0 0 0 0 0 0
0 0 6364 0 0 0 0 0 0 0 0 0 0 0 0 0 0 0 0 0 0 0 6366 6366 6368 6369 6367 6368 6370 6370 6368 6368 6370 6370 6369 6371 6372 6368 6365 0 0 6363 6364 6365 6362 6359 6361 6364 6366 6368 6367 6366 6365 6367 6369 6366 6364 6362 6361 6362 6363 6365 6363 6363 6367 6368 6369 6369 6366 6365 6364 6365 6363 6359 6359 6360 6361 6362 6362 6362 6363 6363 6364 6363 6363 6364 6366 6366 6363 6362 6362 6362 6361 6360 6359 6358 0 0 0 0 0 0 0 0 4660 4661 4662 4662 4661 4661 4658 4656 4657 4659 4661 4661 4661 4662 4665 4666 4665 4664 4662 4661 4661 4661 4661 4662 4665 4671 0 0 0 0 0 0 0 0 0 0 0 0 0 0 0 0 0 0 0 0 0 0 4998 5010 5018 5024 5030 5035 5038 5039 5037 5038 5041 5043 5042 5041 5041 0 0 0 0 0 0 0 0 0 0 0 0 0 0 0 0 0 0 0 0 0 0 0 0 0 0 0 0 4776 0 0 0 0 0 0 0 0 0 0 0 0 0 0 0 0 0 0 0 0 0 0 0 0 0 0 0 0 0 0 6350 6353 6353 6352 6352 6353 0 0 0 0 0 0 0 0 0 0 0 0 0 0 6337 6337 6338 6343 6343 6343 6341 6340 6342 6339 6337 6343 6343 6344 6344 6344 6343 6344 6344 6343 6344 6345 6344 6342 6343 6344 6343 6341 6338 6340 6341 6339 6338 0 0 0 0 0 0 0 0 0 0 0 0 0 0 0 0 0 0 0 0 0 0 0 0 0 0 0 0 0 0 0 0 0 0 0 0 0 0 0 0 0 0 0 0 0 0 0 0 0 0 0 4662 4647 4634 0 0 0 0 0 0 0 0 0 766 775 780 784 786 786 787 788 789 790 791 791 792 791 791 790 790 788 788 788 789 789 790 792 792 794 794 794 795 795 794 794 794 794 794 794 794 794 794 793 793 793 792 792 791 790 789 786 782 780 778 778 778 780 782 784 785 786 785 785 784 783 783 783 783 783 783 782 782 782 782 782 784 784 785 784 784 783 782 782 782 782 783 784 785 786 787 788 788 788 788 788 788 787 787 787 787 787 787 787 787 787 786 787 787 786 786 786 786 786 786 786 786 786 785 786 786 785 785 785 785 785 786 786 786 786 786 786 786 785 785 785 784 784 783 782 780 776 0 0 0 0 0 0 0 0 0 0 0 0 0 0 0 0 0 0 0 1403 1397 1392 1388 1384 1382 1381 1380 1379 1378 1378 1377 1376 1374 1375 1375 1374 1374 1374 1374 1374 1374 1374 1374 1374 1373 1373 1373 1372 1371 1370 1370 1370 1370 1370 1369 1369 1369 1368 1367 1367 1366 1366 1365 1365 1365 1365 1365 1364 1364 1363 1363 1362 1362 1362 1362 1362 1362 1361 1361 1360 1359 1359 1358 1357 1357 1357 1357 1357 1357 1357 1357 1357 1356 1356 1356 1356 1355 1354 1353 1352 1351 1349 1347 1345 1341 1336 1334 1333 0 0 0 0 0 0 0 0 0 0 0 0 0 0 0 0 0 0 0 0 0 0 0 0 0 0 0 0 0 0 0 0 0 0 0 0 0 0 0 0 0 0 0 0 0 0 0 0 0 0 0 0 0 0 0 0 0 0 0 0 0 0 0 0 0 0 0 0 0 0 1090 1089 1088 1090 1094 1099 1108 0 0 0 0 0 0 0 0 0 0 0 0 1848 1849 1849 1849 1849 1848 1847 1846 1845 1843 1841 1840 1839 1837 1837 1836 1834 1832 1831 1830 1828 1825 1822 1820 1818 1816 1813 1810 1807 1807 0 0 0 0 0 0 0 0 0 0 0 0 0 0 0 1793 1785 1779 1775 1773 1771 1770 1768 1767 1766 1766 1765 1764 1761 1759 1758 1757 1755 1754 1753 1753 1754 0 0 0 0 0 0 0 0 0 0 0 0 0 0 0 0 1127 1117 1109 1101 1097 1093 1089 1086 1083 1080 1077 1074 1071 1069 1067 1066 1064 1063 1062 1062 1062 1062 1061 1061 1061 1060 1060 1058 1056 1055 1054 1054 1052 1050 1049 1047 1046 1045 1044 1043 1042 1041 1040 1039 1039 1039 1039 1038 1038 1039 1038 1038 1038 1038 1038 1038 1038 1038 1038 1038 1038 1037 1037 1036 1036 1036 1035 1034 1034 1033 1033 1034 1033 1033 1034 1034 1033 1033 1033 1033 1033 1033 1032 1032 1033 1032 1032 1032 1032 1032 1032 1032 1032 1032 1032 1031 1031 1030 1030 1028 1027 1026 1025 1023 1022 1020 1018 1016 1015 1013 1011 1010 1009 1007 1006 1006 0 0 0 0 0 0 0 0 0 0 0 0 0 0 0 0 0 0 0 0 0 0 0 0 0 0 0 0 0 0 0 0 0 0 0 0 0 0 0 0 0 0 0 0 0 0 0 0 0 0 0 0 0 0 0 0 0 0 0 0 0 0 0 0 0 0 0 0 0 0 0 0 0 0 0 0 0 0 0 0 0 0 0 0 0 0 0 0 0 0 0 0 0 0 0 0 0 0 0 0 0 0 0 0 0 0 0 0 0 0 0 0 0 0 0 0 0 0 0 0 0 0 0 0 0 0 0 0 0 0 0 0 0 0 0 0 0 0 0 0 0 0 0 0 0 0 0 0 0 0 0 0 0 0 0 0 0 0 0 0 0 0 0 0 0 0 0 0
0 6361 6366 6367 0 0 0 0 0 0 0 0 0 0 0 0 0 0 0 0 6366 6369 6368 6368 6369 6371 6371 6369 6369 6369 6367 6368 6370 6370 6369 6373 6375 6373 0 0 0 0 6367 6367 6365 6362 6364 6365 6366 6368 6368 6366 6366 6367 6369 6365 6364 6363 6362 6361 6363 6364 6363 6363 6367 6369 6370 6370 6369 6367 6367 6366 6364 6361 6362 6362 6363 6363 6362 6363 6363 6363 6363 6362 6362 6363 6364 6365 6363 6363 6364 6363 6362 6360 6359 6358 6360 0 0 0 0 0 0 0 4660 4660 4660 4662 4660 4659 4658 4657 4656 4660 4661 4661 4661 4662 4665 4666 4665 4665 4663 4662 4660 4660 4660 4661 4663 4667 0 0 0 0 0 0 0 0 0 0 0 0 0 0 0 0 0 0 0 0 0 0 4995 5007 5016 5024 5030 5035 5038 5040 5039 5040 5044 5044 5044 5043 5042 0 0 0 0 0 0 0 0 0 0 0 0 0 0 0 0 0 0 0 0 0 0 0 0 0 0 0 0 0 0 0 0 0 0 0 0 0 0 0 0 0 0 0 0 0 0 0 0 0 0 0 0 0 0 0 0 0 0 0 0 6355 6355 6355 6354 6355 0 0 0 0 0 0 0 0 0 0 0 0 0 0 6339 6340 6341 6344 6344 6344 6344 6340 6343 6344 6343 6344 6345 6346 6347 6345 6342 6343 6344 6342 6342 6343 6344 6342 6342 6342 6342 6341 6337 6338 6340 6340 6341 0 0 0 0 0 0 0 0 0 0 0 0 0 0 0 0 0 0 0 0 0 0 0 0 0 0 0 0 0 0 0 0 0 0 0 0 0 0 0 0 0 0 0 0 0 0 0 0 0 0 0 0 4650 4638 0 0 0 0 0 0 0 0 0 775 784 788 790 789 788 788 789 790 790 791 792 792 792 791 791 790 788 787 787 787 788 789 790 792 793 794 794 795 795 795 794 794 794 794 794 794 794 794 793 793 793 793 792 791 789 787 783 779 776 775 775 777 779 781 784 786 786 785 785 785 784 783 783 783 783 783 783 782 782 782 782 784 784 785 784 784 783 782 781 781 782 783 784 785 786 787 787 788 788 788 788 788 787 787 787 787 787 787 787 787 786 786 786 787 786 786 786 786 786 786 786 786 786 786 786 786 786 785 785 785 785 786 786 786 786 785 785 785 785 784 784 784 784 783 782 780 777 0 0 0 0 0 0 0 0 0 0 0 0 0 0 0 0 0 0 1406 1398 1393 1389 1387 1384 1381 1380 1380 1378 1377 1377 1377 1376 1374 1375 1375 1375 1374 1374 1375 1374 1374 1374 1375 1375 1374 1373 1373 1372 1372 1371 1370 1371 1370 1370 1369 1369 1369 1368 1368 1367 1366 1366 1366 1366 1365 1365 1365 1364 1364 1363 1363 1362 1362 1362 1362 1362 1362 1361 1360 1360 1359 1359 1359 1358 1358 1357 1357 1357 1357 1356 1356 1357 1357 1356 1356 1356 1355 1354 1353 1352 1351 1348 1346 1341 1332 1320 1315 0 0 0 0 0 0 0 0 0 0 0 0 0 0 0 0 0 0 0 0 0 0 0 0 0 0 0 0 0 0 0 0 0 0 0 0 0 0 0 0 0 0 0 0 0 0 0 0 0 0 0 0 0 0 0 0 0 0 0 0 0 0 0 0 0 0 0 0 0 0 0 0 1079 1078 1081 1086 1093 1103 0 0 0 0 0 0 0 0 0 0 0 0 0 1845 1846 1845 1844 1844 1843 1842 1842 1840 1838 1838 1837 1836 1836 1835 1833 1832 1831 1830 1828 1826 1823 1820 1818 1816 1813 1809 1806 1805 0 0 0 0 0 0 0 0 0 0 0 0 0 0 0 1791 1784 1779 1776 1774 1771 1769 1768 1767 1766 1765 1764 1762 1760 1758 1757 1756 1755 1753 1753 1753 0 0 0 0 0 0 0 0 0 0 0 0 0 0 0 0 0 1125 1116 1108 1102 1097 1093 1088 1085 1082 1079 1076 1073 1071 1069 1067 1066 1065 1064 1063 1062 1062 1062 1061 1061 1061 1060 1060 1059 1057 1055 1054 1053 1052 1049 1048 1047 1046 1045 1044 1043 1042 1041 1040 1040 1039 1039 1039 1039 1039 1039 1039 1039 1039 1039 1039 1039 1039 1039 1039 1038 1038 1037 1037 1036 1036 1036 1035 1034 1034 1034 1034 1034 1033 1033 1033 1033 1033 1033 1033 1033 1033 1033 1032 1032 1033 1032 1032 1032 1032 1032 1032 1032 1032 1032 1032 1032 1031 1031 1031 1031 1029 1029 1028 1027 1026 1024 1023 1021 1019 1018 1016 1014 1012 1010 1009 1009 0 0 0 0 0 0 0 0 0 0 0 0 0 0 0 0 0 0 0 0 0 0 0 0 0 0 0 0 0 0 0 0 0 0 0 0 0 0 0 0 0 0 0 0 0 0 0 0 0 0 0 0 0 0 0 0 0 0 0 0 0 0 0 0 0 0 0 0 0 0 0 0 0 0 0 0 0 0 0 0 0 0 0 0 0 0 0 0 0 0 0 0 0 0 0 0 0 0 0 0 0 0 0 0 0 0 0 0 0 0 0 0 0 0 0 0 0 0 0 0 0 0 0 0 0 0 0 0 0 0 0 0 0 0 0 0 0 0 0 0 0 0 0 0 0 0 0 0 0 0 0 0 0 0 0 0 0 0 0 0 0 0 0 0 0 0 0 0
0 0 0 0 0 0 0 0 0 0 0 0 0 0 0 0 0 0 0 0 6366 6369 6369 6369 6370 6371 6372 6371 6369 6368 6366 6366 6369 6369 6369 6372 6375 6374 0 0 0 0 6369 6370 6368 6366 6368 6369 6368 6368 6369 6367 6366 6367 6368 6365 6363 6365 6365 6364 6366 6368 6365 6365 6367 6368 6367 6367 6366 6365 6364 6363 6362 6360 6362 6363 6362 6362 6362 6363 6364 6364 6362 6360 6362 6364 6365 6365 6364 6365 6366 6367 6366 6363 6361 6360 0 0 0 0 0 0 0 4656 4659 4659 4659 4660 4660 4659 4658 4657 4657 4660 4661 4661 4661 4661 4664 4665 4665 4665 4663 4660 4660 4659 4659 4659 4661 4664 0 0 0 0 0 0 0 0 0 0 0 0 0 0 0 0 0 0 0 0 0 0 4994 5005 5013 5023 5030 5035 5039 5040 5039 5042 5046 5045 5045 5045 0 0 0 0 0 0 0 0 0 0 0 0 0 0 0 0 0 0 0 0 0 0 0 0 0 0 0 0 0 0 0 0 0 0 0 0 0 0 0 0 0 0 0 0 0 0 0 0 0 0 0 0 0 0 0 0 0 0 0 0 0 0 6352 6352 6353 6353 0 0 0 0 0 0 0 0 0 0 0 0 0 0 0 6346 6347 6351 6347 6345 6344 6340 6341 6341 6341 6346 6346 6347 6347 6345 6343 6342 6342 6344 6345 6345 6346 6346 6347 6345 6343 6342 6340 6340 6340 6340 6344 0 0 0 0 0 0 0 0 0 0 0 0 0 0 0 0 0 0 0 0 0 0 0 0 0 0 0 0 0 0 0 0 0 0 0 0 0 0 0 0 0 0 0 0 0 0 0 0 0 0 0 0 4650 4638 0 0 0 0 0 0 757 0 775 784 790 793 793 792 790 790 790 790 791 792 792 792 792 791 791 789 788 787 787 787 787 788 789 790 792 793 794 795 795 795 795 795 795 795 795 795 795 794 794 793 793 793 792 790 788 785 780 776 773 773 774 775 778 781 784 785 786 785 784 784 784 783 783 783 783 783 783 782 782 782 782 783 784 784 784 783 782 781 781 781 782 782 784 785 786 787 787 788 788 788 788 788 787 787 787 787 787 787 787 786 786 786 786 786 786 786 787 786 786 786 785 786 786 786 786 786 786 786 786 786 786 786 786 786 786 786 786 785 785 785 784 784 784 783 782 781 777 0 0 0 0 0 0 0 0 0 0 0 0 0 0 0 0 0 0 1397 1393 1391 1387 1385 1382 1380 1379 1379 1378 1377 1377 1377 1376 1375 1375 1375 1376 1375 1375 1375 1374 1374 1374 1375 1375 1374 1373 1373 1373 1372 1371 1371 1371 1371 1370 1369 1369 1369 1368 1368 1367 1366 1366 1366 1366 1365 1365 1365 1364 1364 1363 1363 1362 1362 1362 1361 1361 1361 1361 1361 1360 1359 1359 1359 1358 1358 1358 1358 1357 1356 1356 1356 1357 1356 1356 1356 1356 1355 1354 1353 1352 1350 1348 1344 1340 0 0 0 0 0 0 0 0 0 0 0 0 0 0 0 0 0 0 0 0 0 0 0 0 0 0 0 0 0 0 0 0 0 0 0 0 0 0 0 0 0 0 0 0 0 0 0 0 0 0 0 0 0 0 0 0 0 0 0 0 0 0 0 0 0 0 0 0 0 0 0 0 0 0 0 0 0 0 0 0 0 0 0 0 0 0 0 0 0 0 0 0 0 0 0 0 0 0 1840 1839 1837 1838 1837 1834 1834 1834 1833 1833 1833 1832 1831 1830 1829 1827 1824 1822 1819 1815 1813 1809 1806 1802 0 0 0 0 0 0 0 0 0 0 0 0 0 0 0 0 1786 1781 1777 1775 1774 1772 1769 1767 1766 1765 1764 1763 1761 1759 1757 1756 1755 1754 1753 1753 1753 0 0 0 0 0 0 0 0 0 0 0 0 0 0 0 0 1132 1124 1114 1107 1101 1096 1091 1087 1084 1081 1078 1075 1073 1070 1069 1067 1066 1065 1064 1063 1063 1062 1062 1061 1061 1060 1060 1060 1058 1057 1055 1054 1053 1052 1050 1048 1047 1046 1045 1044 1043 1042 1041 1041 1040 1039 1039 1038 1038 1039 1039 1039 1039 1039 1039 1039 1039 1039 1039 1039 1038 1037 1037 1036 1036 1035 1035 1034 1034 1034 1034 1034 1034 1034 1034 1033 1033 1033 1033 1033 1034 1034 1033 1033 1032 1032 1032 1032 1032 1032 1032 1032 1032 1032 1032 1033 1032 1032 1032 1032 1032 1031 1031 1031 1031 1030 1029 1028 1027 1025 1022 1020 1018 1017 1015 1013 1012 0 0 0 0 0 0 0 0 0 0 0 0 0 0 0 0 0 0 0 0 0 0 0 0 0 0 0 0 0 0 0 0 0 0 0 0 0 0 0 0 0 0 0 0 0 0 0 0 0 0 0 0 0 0 0 0 0 0 0 0 0 0 0 0 0 0 0 0 0 0 0 0 0 0 0 0 0 0 0 0 0 0 0 0 0 0 0 0 0 0 0 0 0 0 0 0 0 0 0 0 0 0 0 0 0 0 0 0 0 0 0 0 0 0 0 0 0 0 0 0 0 0 0 0 0 0 0 0 0 0 0 0 0 0 0 0 0 0 0 0 0 0 0 0 0 0 0 0 0 0 0 0 0 0 0 0 0 0 0 0 0 0 0 0 0 0 0 0
0 0 0 0 0 0 0 0 0 0 0 0 0 0 0 0 0 0 0 0 0 6366 6367 6367 6369 6370 6370 6369 6367 6366 6365 6365 6365 6367 6368 6370 0 0 0 0 0 0 6368 6369 6369 6368 6370 6371 6370 6369 6368 6366 6364 6364 6365 6365 6364 6365 6366 6366 6367 6368 6365 6364 6365 6366 6366 6366 6365 6365 6364 6363 6362 6361 6361 6362 6361 6361 6361 6364 6365 6365 6364 6360 6361 6363 6364 6363 6360 6361 6363 6364 6363 6361 6362 6361 0 0 0 0 0 0 0 4655 4659 4658 4658 4659 4659 4659 4658 4658 4658 4660 4661 4661 4661 4661 4663 4663 4663 4663 4664 4660 4658 4658 4658 4661 4661 4664 0 0 0 0 0 0 0 0 0 0 0 0 0 0 0 0 0 0 0 0 0 0 4994 5005 5013 5022 5031 5035 5038 5040 5040 5043 5047 5046 5046 0 0 0 0 0 0 0 0 0 0 0 0 0 0 0 0 0 0 0 0 0 0 0 0 0 0 0 0 0 0 0 0 0 0 0 0 0 0 0 0 0 0 0 0 0 0 0 0 0 0 0 0 0 0 0 0 0 0 0 0 0 0 0 6351 6351 6351 6351 6351 0 0 0 0 0 0 0 0 0 0 0 0 0 6345 6346 6347 6351 6347 6344 6343 6341 6341 6339 6339 6345 6347 6347 6347 6344 6345 6342 6342 6344 6343 6345 6346 6345 6347 6345 6343 6342 6340 6342 6342 6342 6346 0 0 0 0 0 0 0 0 0 0 0 0 0 0 0 0 0 0 0 0 0 0 0 0 0 0 0 0 0 0 0 0 0 0 0 0 0 0 0 0 0 0 0 0 0 0 0 0 0 0 0 0 0 0 0 0 0 0 0 0 0 0 781 793 798 800 797 794 793 792 791 791 792 792 792 792 791 791 791 790 789 787 786 786 786 787 789 790 791 792 794 795 795 795 795 795 796 795 795 795 796 795 794 794 793 792 791 789 786 782 777 773 771 772 773 776 779 782 784 785 785 785 784 783 783 783 782 783 783 783 782 782 782 782 782 783 784 784 784 783 782 781 781 781 782 783 784 785 786 787 788 788 788 788 788 788 788 788 788 788 788 788 787 787 786 786 786 786 786 786 787 786 786 786 785 786 786 786 786 786 786 786 786 786 786 786 786 786 786 786 786 786 785 785 785 784 784 783 783 781 778 0 0 0 0 0 0 0 0 0 0 0 0 0 0 0 0 0 1397 1393 1390 1387 1385 1383 1381 1379 1378 1378 1378 1377 1377 1377 1376 1376 1376 1376 1376 1375 1375 1375 1374 1374 1374 1374 1374 1374 1373 1373 1373 1372 1372 1371 1371 1371 1370 1370 1370 1369 1368 1368 1367 1366 1366 1366 1366 1365 1365 1365 1364 1364 1364 1363 1362 1362 1362 1361 1361 1361 1361 1361 1361 1360 1360 1360 1359 1358 1358 1358 1357 1357 1356 1356 1356 1356 1356 1356 1355 1355 1354 1353 1352 1349 1347 1344 0 0 0 0 0 0 0 0 0 0 0 0 0 0 0 0 0 0 0 0 0 0 0 0 0 0 0 0 0 0 0 0 0 0 0 0 0 0 0 0 0 0 0 0 0 0 0 0 0 0 0 0 0 0 0 0 0 0 0 0 0 0 0 0 0 0 0 0 0 0 0 0 0 0 0 0 0 0 0 0 0 0 0 0 0 0 0 0 0 0 0 0 0 0 0 0 0 0 0 0 0 0 0 0 0 0 0 0 1826 1828 1828 1828 1828 1827 1825 1822 1820 1817 1813 1809 1806 1802 0 0 0 0 0 0 0 0 0 0 0 0 0 0 0 0 1788 1788 1783 1779 1775 1774 1771 1769 1767 1766 1765 1763 1762 1760 1759 1757 1755 1754 1753 1752 1752 1754 0 0 0 0 0 0 0 0 0 0 0 0 0 0 0 0 1130 1121 1113 1106 1101 1096 1092 1088 1084 1081 1078 1075 1072 1070 1068 1067 1066 1065 1064 1063 1063 1063 1062 1062 1061 1061 1060 1059 1058 1056 1055 1054 1053 1052 1050 1049 1047 1046 1046 1045 1043 1042 1041 1041 1040 1040 1039 1038 1038 1038 1039 1039 1039 1039 1039 1039 1039 1038 1038 1038 1038 1037 1037 1036 1036 1035 1035 1035 1034 1034 1033 1034 1034 1034 1034 1034 1033 1033 1033 1033 1033 1033 1033 1033 1032 1032 1032 1032 1031 1031 1031 1031 1032 1032 1033 1033 1033 1033 1032 1032 1032 1032 1032 1033 1033 1033 1033 1032 1032 1031 1029 1026 1024 1022 1021 1019 1018 1017 0 0 0 0 0 0 0 0 0 0 0 0 0 0 0 0 0 0 0 0 0 0 0 0 0 0 0 0 0 0 0 0 0 0 0 0 0 0 0 0 0 0 0 0 0 0 0 0 0 0 0 0 0 0 0 0 0 0 0 0 0 0 0 0 0 0 0 0 0 0 0 0 0 0 0 0 0 0 0 0 0 0 0 0 0 0 0 0 0 0 0 0 0 0 0 0 0 0 0 0 0 0 0 0 0 0 0 0 0 0 0 0 0 0 0 0 0 0 0 0 0 0 0 0 0 0 0 0 0 0 0 0 0 0 0 0 0 0 0 0 0 0 0 0 0 0 0 0 0 0 0 0 0 0 0 0 0 0 0 0 0 0 0 0 0 0 0
0 0 0 0 0 0 0 0 0 0 0 0 0 0 0 0 0 0 0 0 0 6364 6365 6365 6365 6367 6368 6368 6366 6365 6365 6365 6366 6368 6370 6373 6374 0 0 0 0 6368 6368 6370 0 0 6369 6370 6369 6369 6368 6366 6363 6362 6363 6363 6364 6365 6366 6367 6368 6369 6368 6366 6367 6367 6368 6366 6366 6366 6365 6364 6362 6361 6361 6361 6361 6360 6360 6363 6366 6366 6364 6361 6361 6362 6362 6361 6357 6356 6357 6359 6359 6357 6358 6360 6363 0 0 0 0 0 0 4655 4659 4658 4658 4659 4658 4658 4658 4659 4659 4661 4662 4661 4661 4662 4664 4663 4662 4662 4662 4662 4659 4658 4658 4661 4665 4667 0 0 0 0 0 0 0 0 0 0 0 0 0 0 0 0 0 0 0 0 0 0 4996 5005 5014 5023 5031 5035 5038 5040 5041 5044 5047 5047 5047 0 0 0 0 0 0 0 0 0 0 0 0 0 0 0 0 0 0 0 0 0 0 0 0 0 0 0 0 0 0 0 0 0 0 0 0 0 0 0 0 0 0 0 0 0 0 0 0 0 0 0 0 0 0 0 0 0 0 0 0 0 0 0 0 6350 6350 6350 6351 0 0 0 0 0 0 0 0 0 0 0 6345 6344 6348 6349 6348 6351 6347 6344 6342 6340 6340 6340 6339 6344 6346 6347 6346 6342 6344 6344 6342 6344 6343 6347 6348 6346 6345 6343 6342 6341 6339 6342 6343 6344 6349 6349 0 0 0 0 0 0 0 0 0 0 0 0 0 0 0 0 0 0 0 0 0 0 6345 6346 6344 6347 6345 6345 6345 6344 6344 6341 6340 6337 6332 6331 6329 6327 6322 6316 0 0 0 0 0 0 0 0 0 0 0 0 0 0 0 0 0 0 0 0 778 789 795 802 803 799 796 793 793 792 792 792 792 792 792 792 791 791 790 788 787 786 786 786 787 788 789 791 792 794 795 795 795 795 795 796 796 795 795 796 795 795 794 793 792 791 788 784 780 775 772 771 772 774 776 779 782 783 784 785 784 784 783 783 783 783 783 783 783 783 783 782 782 783 783 784 784 784 783 782 782 782 782 782 783 784 785 786 787 788 788 788 788 788 788 788 788 789 788 788 788 788 787 787 787 787 787 787 787 787 786 786 786 786 786 787 787 787 787 787 786 786 786 786 786 786 786 786 786 786 786 786 785 785 785 784 784 783 782 779 0 0 0 0 0 0 0 0 0 0 0 0 0 0 0 0 0 1395 1391 1388 1386 1384 1382 1380 1379 1378 1377 1377 1377 1377 1377 1376 1376 1377 1377 1377 1376 1376 1375 1375 1374 1373 1374 1373 1373 1373 1373 1372 1372 1372 1371 1370 1370 1370 1370 1369 1369 1368 1368 1368 1368 1367 1366 1366 1365 1365 1364 1364 1364 1364 1364 1363 1362 1362 1361 1361 1361 1361 1361 1361 1361 1361 1360 1360 1359 1359 1358 1358 1357 1356 1356 1356 1355 1355 1355 1355 1355 1354 1353 1352 1350 1347 1343 0 0 0 0 0 0 0 0 0 0 0 0 0 0 0 0 0 0 0 0 0 0 0 0 0 0 0 0 0 0 0 0 0 0 0 0 0 0 0 0 0 0 0 0 0 0 0 0 0 0 0 0 0 0 0 0 0 0 0 0 0 0 0 0 0 0 0 0 0 0 0 0 0 0 0 0 0 0 0 0 0 0 0 0 0 0 0 0 0 0 0 0 0 0 0 0 0 0 0 0 0 0 0 0 0 0 0 0 0 0 0 0 0 0 0 1819 1817 1815 1811 0 0 0 0 0 0 0 0 0 0 0 0 0 0 0 0 0 0 0 1784 1784 1783 1778 1774 1773 1771 1769 1767 1765 1765 1763 1761 1760 1758 1757 1756 1755 1753 1753 1754 1755 0 0 0 0 0 0 0 0 0 0 0 0 0 0 0 1135 1127 1118 1111 1105 1100 1096 1092 1088 1085 1081 1078 1075 1072 1070 1068 1067 1066 1066 1064 1064 1063 1063 1062 1062 1061 1060 1060 1059 1058 1057 1056 1055 1053 1052 1050 1048 1047 1046 1045 1044 1043 1042 1041 1040 1039 1039 1038 1038 1037 1038 1038 1038 1038 1038 1038 1038 1038 1037 1037 1037 1037 1037 1036 1036 1036 1035 1035 1035 1035 1034 1034 1033 1034 1033 1033 1033 1033 1033 1033 1033 1033 1034 1034 1033 1033 1032 1032 1032 1032 1032 1032 1031 1032 1032 1032 1032 1033 1032 1032 1032 1032 1032 1033 1034 1035 1035 1036 1037 1036 1035 1035 1035 1033 1030 1029 1029 1027 1025 0 0 0 0 0 0 0 0 0 0 0 0 0 0 0 0 0 0 0 0 0 0 0 0 0 0 0 0 0 0 0 0 0 0 0 0 0 0 0 0 0 0 0 0 0 0 0 0 0 0 0 0 0 0 0 0 0 0 0 0 0 0 0 0 0 0 0 0 0 0 0 0 0 0 0 0 0 0 0 0 0 0 0 0 0 0 0 0 0 0 0 0 0 0 0 0 0 0 0 0 0 0 0 0 0 0 0 0 0 0 0 0 0 0 0 0 0 0 0 0 0 0 0 0 0 0 0 0 0 0 0 0 0 0 0 0 0 0 0 0 0 0 0 0 0 0 0 0 0 0 0 0 0 0 0 0 0 0 0 0 0 0 0 0 0 0 0
0 0 0 0 0 0 0 0 0 0 0 0 0 0 0 0 0 0 0 0 0 6363 6366 6366 6366 6366 6366 6367 6365 6365 6365 6365 6365 6368 6370 6373 6375 6373 6372 6371 6370 6369 6369 0 0 0 0 0 6369 6368 6367 6366 6364 6363 6362 6363 6364 6366 6367 6368 6368 6369 6369 6370 6371 6371 6371 6369 6368 6368 6366 6364 6362 6361 6361 6361 6361 6360 6359 6363 6366 6365 6363 6360 6360 6360 6360 6359 6355 6354 6354 6356 6357 6356 6357 6358 6361 0 0 0 0 0 4655 4657 4659 4660 4660 4659 4659 4659 4659 4660 4660 4660 4660 4660 4661 4662 4664 4662 4660 4663 4662 4661 4661 4660 4660 4662 4664 4666 4670 0 0 0 0 0 0 0 0 0 0 0 0 0 0 0 0 0 0 0 0 0 0 5007 5015 5022 5029 5034 5038 5041 5040 5042 5045 5046 5046 0 0 0 0 0 0 0 0 0 0 0 0 0 0 0 0 0 0 0 0 0 0 0 0 0 0 0 0 0 0 0 0 0 0 0 0 0 0 0 0 0 0 0 0 0 0 0 0 0 0 0 0 0 0 0 0 0 0 0 0 0 0 0 0 6349 6348 6348 6349 0 0 0 0 0 0 0 0 0 0 0 6347 6347 6350 6351 6351 6351 6348 6346 6343 6340 6339 6339 6339 6343 6344 6347 6347 6343 6345 6346 6344 6344 6346 6346 6350 6348 6345 6342 6341 6341 6339 6342 6342 6343 6349 6349 6350 0 0 0 0 0 0 0 0 0 0 0 0 0 0 0 0 0 0 0 0 6336 6338 6339 6340 6341 6339 6338 6339 6340 6340 6338 6338 6338 6332 6331 6329 6327 6323 6318 6318 6319 6316 6311 6311 6310 0 0 0 0 0 0 0 0 0 0 0 0 0 778 785 795 801 805 804 801 797 794 793 793 792 792 792 792 792 792 791 790 790 788 787 787 786 786 787 788 789 790 792 793 794 795 796 795 796 796 796 796 795 796 795 795 794 794 792 790 787 782 778 774 772 772 773 775 778 781 782 784 784 784 784 783 783 783 783 783 783 783 783 783 783 782 782 783 783 784 784 783 783 782 781 782 782 782 784 784 785 786 787 788 788 788 788 788 788 788 788 789 788 788 788 788 788 787 787 787 787 787 787 787 787 787 787 787 787 787 787 787 787 787 786 786 786 786 785 785 786 785 785 786 786 786 785 785 785 785 784 783 782 779 0 0 0 0 0 0 0 0 0 0 0 0 0 0 0 0 1399 1393 1389 1387 1385 1383 1381 1380 1379 1378 1378 1377 1377 1377 1377 1377 1377 1377 1377 1377 1376 1375 1375 1374 1373 1373 1373 1373 1373 1373 1372 1372 1371 1371 1371 1370 1371 1370 1370 1370 1370 1369 1369 1369 1369 1368 1367 1366 1365 1365 1365 1364 1364 1364 1364 1363 1362 1362 1362 1361 1361 1361 1361 1361 1361 1361 1360 1360 1359 1359 1358 1358 1357 1357 1356 1356 1356 1355 1355 1355 1355 1354 1353 1352 1350 1348 1344 0 0 0 0 0 0 0 0 0 0 0 0 0 0 0 0 0 0 0 0 0 0 0 0 0 0 0 0 0 0 0 0 0 0 0 0 0 0 0 0 0 0 0 0 0 0 0 0 0 0 0 0 0 0 0 0 0 0 0 0 0 0 0 0 0 0 0 0 0 0 0 0 0 0 0 0 0 0 0 0 0 0 0 0 0 0 0 0 0 0 0 0 0 0 0 0 0 0 0 0 0 0 0 0 0 0 0 0 0 0 0 0 0 0 0 0 0 0 0 0 0 0 0 0 0 0 0 0 0 0 0 0 0 0 0 0 0 0 1781 1778 1780 1778 1773 1773 1771 1769 1767 1765 1764 1763 1761 1759 1758 1756 1755 1754 1753 1753 1754 1756 0 0 0 0 0 0 0 0 0 0 0 0 0 0 1140 1131 1122 1115 1109 1104 1098 1095 1091 1087 1084 1081 1078 1075 1072 1070 1068 1067 1066 1066 1065 1064 1064 1063 1062 1061 1061 1060 1060 1059 1058 1057 1056 1055 1053 1052 1050 1048 1047 1046 1044 1043 1042 1041 1040 1039 1039 1038 1037 1037 1037 1037 1038 1038 1038 1038 1038 1038 1038 1037 1037 1036 1036 1035 1035 1035 1035 1035 1035 1035 1035 1035 1034 1034 1033 1033 1032 1032 1032 1032 1032 1033 1033 1034 1034 1034 1033 1033 1032 1032 1032 1032 1032 1032 1031 1032 1032 1032 1032 1032 1032 1032 1032 1033 1034 1035 1036 1037 1038 1040 1040 1039 1039 1039 1039 1037 1035 1033 1032 1030 0 0 0 0 0 0 0 0 0 0 0 0 0 0 0 0 0 0 0 0 0 0 0 0 0 0 0 0 0 0 0 0 0 0 0 0 0 0 0 0 0 0 0 0 0 0 0 0 0 0 0 0 0 0 0 0 0 0 0 0 0 0 0 0 0 0 0 0 0 0 0 0 0 0 0 0 0 0 0 0 0 0 0 0 0 0 0 0 0 0 0 0 0 0 0 0 0 0 0 0 0 0 0 0 0 0 0 0 0 0 0 0 0 0 0 0 0 0 0 0 0 0 0 0 0 0 0 0 0 0 0 0 0 0 0 0 0 0 0 0 0 0 0 0 0 0 0 0 0 0 0 0 0 0 0 0 0 0 0 0 0 0 0 0 0 0 0
0 0 0 0 0 0 0 0 0 0 0 0 0 0 0 0 0 0 0 0 0 6364 6367 6368 6368 6368 6367 6366 6366 6366 6366 6365 6364 6367 6368 6372 6373 6371 6370 6369 6368 6367 0 0 0 0 0 0 0 6369 6368 6367 6366 6364 6363 6364 6365 6368 6368 6368 6368 6368 6369 6370 6371 6370 6369 6369 6368 6367 6366 6364 6361 6359 6360 6360 6360 6361 6361 6363 6365 6366 6364 6361 6361 6361 6359 6359 6356 6355 6355 6357 6357 6356 6359 6361 6362 0 0 0 0 0 4659 4660 4661 4662 4662 4661 4659 4659 4658 4659 4659 4659 4659 4660 4660 4661 4663 4664 4662 4664 4664 4662 4662 4663 4663 4664 4666 4667 0 0 0 0 0 0 0 0 0 0 0 0 0 0 0 0 0 0 0 0 0 0 0 0 5016 5023 5028 5033 5036 5039 5038 5039 5042 5042 5043 0 0 0 0 0 0 0 0 0 0 0 0 0 0 0 0 0 0 0 0 0 0 0 0 0 0 0 0 0 0 0 0 0 0 0 0 0 0 0 0 0 0 0 0 0 0 0 0 0 0 0 0 0 0 0 0 0 0 0 0 0 0 0 0 6348 6348 6348 0 0 0 0 0 0 0 0 0 0 0 0 6346 6347 6351 6351 6350 6350 6348 6345 6343 6341 6340 6340 6341 6343 6344 6347 6350 6346 6348 6348 6347 6344 6348 6347 6345 6347 6345 6342 6341 6342 6341 6342 6340 6339 6345 6344 6346 0 0 0 0 0 0 0 0 0 6334 6334 0 0 0 0 0 0 0 0 6335 6336 6337 6338 6338 6340 6337 6336 6337 6339 6341 6338 6337 6337 6334 6330 6328 6327 6324 6321 6320 6320 6319 6317 6315 6318 6316 6313 6310 6305 0 0 0 0 0 0 0 775 779 785 792 799 803 806 805 802 798 795 794 793 793 792 792 792 792 792 791 790 789 789 788 787 786 787 787 788 789 790 792 792 793 794 795 795 795 795 795 795 795 795 795 795 794 793 792 789 785 781 776 773 772 773 775 777 779 782 783 784 784 784 784 783 783 783 783 783 784 784 783 783 783 783 782 782 783 784 783 783 782 782 781 781 782 782 784 784 785 786 787 788 788 788 788 788 789 789 788 788 789 788 788 788 788 787 787 787 787 787 787 787 787 787 787 787 787 787 787 787 787 786 786 786 786 786 786 785 786 785 785 785 785 786 786 785 785 785 784 783 782 779 0 0 0 0 0 0 0 0 0 0 0 0 0 0 0 0 1398 1392 1388 1385 1384 1382 1381 1380 1379 1379 1378 1378 1378 1378 1378 1377 1377 1377 1377 1377 1376 1375 1374 1374 1373 1373 1373 1373 1373 1372 1372 1372 1371 1371 1370 1370 1371 1370 1370 1370 1370 1369 1368 1368 1368 1367 1366 1366 1365 1365 1365 1365 1365 1364 1364 1363 1362 1362 1361 1361 1361 1361 1362 1362 1362 1362 1361 1360 1359 1359 1358 1357 1357 1357 1356 1356 1355 1355 1355 1355 1355 1355 1354 1353 1352 1349 1346 0 0 0 0 0 0 0 0 0 0 0 958 950 945 938 931 0 0 0 0 889 885 882 880 0 0 0 0 0 0 0 0 0 0 0 0 0 0 0 0 0 0 0 0 0 0 0 0 0 0 0 0 0 0 0 0 0 0 0 0 0 0 0 0 0 0 0 0 0 0 0 0 0 0 0 0 0 0 0 0 0 0 0 0 0 0 0 0 0 0 0 0 0 0 0 0 0 0 0 0 0 0 0 0 0 0 0 0 804 803 801 799 797 796 797 0 0 0 0 0 0 0 0 0 0 0 0 0 0 0 0 0 0 0 0 0 0 0 0 1775 1777 1776 1773 1772 1771 1769 1768 1766 1764 1763 1761 1759 1757 1755 1754 1753 1752 1753 1754 1756 0 0 0 0 0 0 0 0 0 0 0 0 0 1143 1135 1127 1119 1113 1107 1102 1097 1094 1090 1086 1083 1080 1077 1074 1072 1070 1068 1067 1066 1066 1065 1064 1064 1063 1062 1061 1061 1060 1059 1059 1058 1057 1056 1054 1053 1051 1050 1048 1046 1045 1044 1043 1042 1040 1039 1039 1039 1038 1037 1037 1037 1037 1037 1037 1037 1037 1037 1037 1037 1036 1036 1035 1035 1035 1034 1034 1035 1035 1035 1035 1035 1034 1033 1033 1033 1032 1032 1031 1031 1031 1031 1032 1033 1033 1034 1034 1034 1033 1033 1033 1033 1033 1033 1032 1032 1032 1032 1033 1033 1032 1032 1032 1032 1033 1034 1035 1036 1037 1039 1041 1043 1042 1042 1043 1043 1042 1041 1039 1037 1036 0 0 0 0 0 0 0 0 0 0 0 0 0 0 0 0 0 0 0 0 0 0 0 0 0 0 0 0 0 0 0 0 0 0 0 0 0 0 0 0 0 0 0 0 0 0 0 0 0 0 0 0 0 0 0 0 0 0 0 0 0 0 0 0 0 0 0 0 0 0 0 0 0 0 0 0 0 0 0 0 0 0 0 0 0 0 0 0 0 0 0 0 0 0 0 0 0 0 0 0 0 0 0 0 0 0 0 0 0 0 0 0 0 0 0 0 0 0 0 0 0 0 0 0 0 0 0 0 0 0 0 0 0 0 0 0 0 0 0 0 0 0 0 0 0 0 0 0 0 0 0 0 0 0 0 0 0 0 0 0 0 0 0 0 0 0 0
0 0 0 0 0 0 0 0 0 0 0 0 0 0 0 0 0 0 0 0 0 6364 6368 6370 6370 6370 6370 6369 6368 6368 6368 6367 6366 6367 6369 6369 6370 6369 6368 6367 6367 6366 6367 0 0 0 0 6370 6369 6369 6369 6368 6367 6366 6366 6367 6369 6371 6371 6371 6369 6369 6370 6369 6369 6367 6365 6363 6364 6365 6363 6361 6360 6358 6359 6360 6361 6360 6361 6363 6365 6366 6365 6362 6364 6363 6361 6359 6357 6356 6356 6358 6358 6357 6359 6362 6364 0 0 0 0 0 4659 4660 4661 4662 4661 4661 4660 4659 4658 4659 4659 4658 4658 4658 4658 4659 4661 4661 4663 4664 4665 4664 4664 4665 4666 4667 4668 4670 0 0 0 0 0 0 0 0 0 0 0 0 0 0 0 0 0 0 0 0 0 0 0 0 5017 5024 5030 5034 5035 5035 5035 5036 5038 5038 0 0 0 0 0 0 0 0 0 0 0 0 0 0 0 0 0 0 0 0 0 0 0 0 0 0 0 0 0 0 0 0 0 0 0 0 0 0 0 0 0 0 0 0 0 0 0 0 0 0 0 0 0 0 0 0 0 0 0 0 0 0 0 0 0 0 6348 6350 0 0 0 0 0 0 0 0 0 0 0 0 6350 6355 6355 6356 6354 6351 6350 6345 6342 6342 6344 6344 6344 6344 6349 6348 6347 6346 6346 6345 6345 6345 6347 6346 6345 6344 6346 6343 6343 6345 6348 6346 6344 6342 6344 6345 6347 6350 0 0 0 0 0 0 0 0 6335 0 0 0 0 0 0 0 0 0 6336 6340 6341 6341 6341 6342 6338 6335 6335 6336 6339 6337 6336 6336 6334 6331 6327 6327 6327 6325 6323 6323 6322 6320 6320 6322 6322 6322 6322 6319 6316 0 0 763 768 774 780 786 790 793 797 801 803 804 804 801 798 795 794 794 793 792 792 792 792 792 791 790 789 789 788 787 787 786 787 787 789 790 791 792 793 794 795 795 795 795 795 795 795 795 795 795 795 793 791 788 784 779 776 773 774 775 777 779 781 782 783 784 783 783 783 783 783 783 783 784 784 784 784 783 783 782 782 783 783 783 783 783 782 781 782 782 782 783 784 785 786 786 787 788 788 788 788 788 788 788 788 788 788 788 788 787 787 787 787 787 787 787 787 787 787 787 787 787 787 787 786 786 786 786 786 786 785 786 786 785 786 785 785 785 785 786 786 785 785 785 784 783 782 779 0 0 0 0 0 0 0 0 0 0 0 0 0 0 0 0 1397 1391 1388 1385 1383 1383 1381 1380 1380 1380 1379 1378 1378 1378 1378 1378 1377 1378 1377 1377 1376 1376 1375 1374 1373 1373 1373 1373 1373 1373 1372 1372 1371 1371 1371 1370 1371 1370 1370 1370 1370 1369 1368 1368 1367 1366 1366 1366 1365 1365 1365 1364 1365 1364 1364 1364 1362 1362 1362 1361 1361 1361 1361 1362 1362 1362 1361 1360 1359 1359 1359 1358 1358 1358 1357 1356 1356 1355 1355 1355 1355 1355 1354 1354 1351 1349 1346 1339 0 0 0 0 0 0 1000 984 972 965 959 951 948 941 934 926 915 904 897 892 887 885 882 878 873 867 863 858 855 851 849 846 842 0 0 838 837 838 836 838 838 841 832 840 0 0 0 0 0 0 0 0 0 0 0 0 0 0 0 0 0 0 0 0 0 0 0 0 0 0 802 802 801 802 804 806 0 0 0 0 0 0 0 0 0 0 0 0 0 0 0 0 0 0 0 0 0 0 0 0 0 0 0 0 0 801 800 799 799 797 797 795 795 794 794 796 798 0 0 0 0 0 0 0 0 0 0 0 0 0 0 0 0 0 0 0 0 0 0 0 1771 1769 1771 1770 1768 1766 1765 1764 1762 1760 1759 1757 1756 1754 1753 1752 1753 1754 1202 0 0 0 0 0 0 0 0 0 0 0 0 1145 1138 1130 1124 1116 1110 1105 1100 1095 1092 1089 1085 1082 1079 1076 1074 1072 1070 1068 1066 1065 1065 1064 1063 1063 1062 1061 1061 1060 1060 1059 1059 1058 1057 1055 1054 1052 1051 1049 1047 1046 1045 1044 1042 1041 1040 1039 1039 1038 1038 1037 1037 1037 1036 1036 1036 1036 1036 1036 1036 1035 1035 1035 1034 1035 1035 1034 1034 1034 1034 1035 1035 1035 1034 1033 1033 1033 1032 1032 1032 1031 1031 1031 1032 1033 1033 1034 1034 1034 1033 1033 1033 1033 1033 1033 1032 1032 1032 1032 1032 1032 1032 1032 1032 1032 1033 1033 1034 1036 1037 1039 1041 1042 1044 1046 1047 1047 1046 1044 1044 1043 1042 0 0 0 0 0 0 0 0 0 0 0 0 0 0 0 0 0 0 0 0 0 0 0 0 0 0 0 0 0 0 0 0 0 0 0 0 0 0 0 0 0 0 0 0 0 0 0 0 0 0 0 0 0 0 0 0 0 0 0 0 0 0 0 0 0 0 0 0 0 0 0 0 0 0 0 0 0 0 0 0 0 0 0 0 0 0 0 0 0 0 0 0 0 0 0 0 0 0 0 0 0 0 0 0 0 0 0 0 0 0 0 0 0 0 0 0 0 0 0 0 0 0 0 0 0 0 0 0 0 0 0 0 0 0 0 0 0 0 0 0 0 0 0 0 0 0 0 0 0 0 0 0 0 0 0 0 0 0 0 0 0 0 0 0 0 0 0
